# .PCD v0.7 - Point Cloud Data file format
VERSION 0.7
FIELDS x y z intensity
SIZE 4 4 4 4
TYPE F F F F
COUNT 1 1 1 1
WIDTH 1415
HEIGHT 1
VIEWPOINT 0 0 0 1 0 0 0
POINTS 1415
DATA ascii
2.4846349 3.63008 -0.54012495 82
3.8513949 5.6248198 1.0797108 20
2.063288 3.0133557 -0.31951293 60
3.8531432 5.625267 1.3253593 13
2.1122839 3.082607 -0.19584116 31
3.8706787 5.6466384 1.5805061 17
2.2833142 3.3297076 -0.070472814 27
2.5593898 3.7309096 1.2123084 6
2.1906316 3.1850071 -1.0357939 10
3.8505082 5.5962453 0.11857165 24
2.3224969 3.3742092 -0.94569421 22
3.8749526 5.6275649 0.35808265 18
2.2824924 3.3148468 -0.78231698 36
3.8653541 5.6115284 0.59614527 26
2.4513085 3.5573549 -0.68424439 39
3.8813148 5.6304917 0.83967984 16
2.5085614 3.6377263 -0.54256237 85
3.874372 5.6162186 1.0806495 18
2.07832 3.0126946 -0.32021019 66
3.8727543 5.611783 1.3253593 13
2.1105506 3.0571349 -0.19468978 31
3.8992264 5.6459198 1.5841054 17
2.3051529 3.336525 -0.07078696 24
2.5899727 3.7473803 1.2205906 6
2.1995361 3.1741645 -1.0347586 8
3.8791323 5.5959191 0.11885089 22
2.3364828 3.3692839 -0.94659406 24
3.8968511 5.6172857 0.35829198 12
2.3164313 3.3391209 -0.7899493 39
3.8962765 5.6143708 0.59788835 26
2.4704676 3.5585144 -0.68612164 39
3.9066083 5.6250601 0.84089851 16
2.5189781 3.6256874 -0.54207492 81
3.9142416 5.6318598 1.0862811 18
2.0979185 3.0185113 -0.32160467 68
3.9068904 5.6191845 1.3303204 14
2.1234908 3.0530279 -0.19489913 30
3.9266975 5.6434746 1.5872546 18
2.3270679 3.3432288 -0.071101107 26
2.6008308 3.7351451 1.2195554 6
2.2183414 3.1775568 -1.0383821 9
3.915818 5.606935 0.11937446 22
2.3393021 3.3483274 -0.94299489 20
2.3190732 3.3181427 -0.78689629 37
3.9318354 5.6235957 0.60032874 26
2.4964619 3.5692935 -0.68987608 39
3.9421482 5.6341629 0.84431088 16
2.5338964 3.6201243 -0.54256237 82
3.9440753 5.6327252 1.0890969 20
2.1152995 3.0209618 -0.32265055 67
3.9433732 5.6296363 1.3360447 14
2.1398652 3.0537755 -0.19542249 30
3.9508488 5.6361156 1.5890542 20
2.3502042 3.3514583 -0.071450152 79
2.6271653 3.7450221 1.225767 7
2.2260864 3.1650531 -1.0368291 9
3.948025 5.6112213 0.11975842 22
2.344245 3.3305802 -0.94029546 24
2.3227303 3.2987897 -0.78422499 48
3.9560323 5.6163511 0.601026 26
2.5214207 3.5783203 -0.69331765 39
3.9743733 5.6382141 0.84699202 16
2.5550363 3.6246824 -0.54451227 82
3.9547656 5.6083136 1.0869068 18
2.1258311 3.0135601 -0.32265055 66
3.9720573 5.6286683 1.3390976 14
2.1551197 3.0528133 -0.19584116 30
3.9807575 5.6389022 1.5935532 21
2.3659189 3.3501806 -0.071589775 29
2.6574042 3.7615356 1.2340492 7
2.2321043 3.1513474 -1.0347586 8
3.9689221 5.6013622 0.11982822 22
2.3462605 3.3100696 -0.93669617 28
2.3223019 3.275054 -0.7804088 46
3.9803972 5.6113272 0.60189754 26
2.5367019 3.5747726 -0.69425625 37
4.002243 5.6379523 0.84894192 15
2.5762355 3.6291387 -0.54646218 85
3.9985025 5.6306014 1.0937898 21
2.1381214 3.0097418 -0.32299918 68
4.0020752 5.6314673 1.3429137 15
2.1744888 3.0586729 -0.19667853 28
4.0141125 5.6463184 1.599402 21
2.3909235 3.3618712 -0.072008632 13
2.6586652 3.7369606 1.2288729 7
2.2492728 3.1533649 -1.0378644 9
3.99212 5.5946822 0.11996785 22
2.3492997 3.2911673 -0.93354684 30
2.3240218 3.2545536 -0.77735591 40
4.0151958 5.6207952 0.60433793 26
2.5508404 3.5695546 -0.69488198 19
4.0278425 5.6343398 0.85040432 15
2.6004362 3.63627 -0.54889959 82
4.0215793 5.6214304 1.0947285 18
2.1596823 3.0188396 -0.32474229 65
4.0230117 5.6213589 1.343677 14
2.1846209 3.0514445 -0.19667853 30
4.0440087 5.6465325 1.6034511 20
2.4014788 3.3518796 -0.071973726 9
2.6897008 3.75278 1.2371551 7
2.2535017 3.1360819 -1.0347586 8
4.0291314 5.6050696 0.12049142 22
2.3425708 3.2576318 -0.92634839 17
2.3307812 3.2400467 -0.77582937 24
4.0452671 5.6212988 0.60590672 26
4.0544443 5.6299114 0.85186678 15
2.6154335 3.6303926 -0.54938704 81
4.0619683 5.6362038 1.1003602 17
2.177197 3.0209804 -0.32578817 68
4.058682 5.6295776 1.3490196 13
2.1975949 3.0470405 -0.19688788 27
4.0739574 5.6466036 1.6075002 22
2.4236979 3.3580692 -0.072287865 8
2.7208772 3.768429 1.2454373 3
2.2644358 3.128196 -1.0347586 8
4.0615749 5.6087856 0.12087537 24
2.3516409 3.2462792 -0.92544866 26
2.3495555 3.2410188 -0.77811909 63
4.0788965 5.626502 0.60799843 26
2.49104 3.4349229 -0.67204249 4
4.0857306 5.6317916 0.85430413 13
2.6304209 3.6244543 -0.54987448 82
4.0909004 5.6347785 1.1028631 17
2.1999621 3.0291014 -0.32753128 68
4.0815978 5.6178398 1.3497829 12
2.2240126 3.0599689 -0.19824862 30
4.1050987 5.6481133 1.6119993 23
2.476563 3.4061973 -0.073509537 1
4.1226115 5.6680474 1.8779911 7
2.2736082 3.1167545 -1.0337234 9
4.0974307 5.6148601 0.12132913 26
2.357779 3.2297676 -0.92319912 37
2.3521547 3.2197027 -0.7750662 67
4.1065445 5.6211662 0.60904431 26
2.497786 3.4177949 -0.67047822 19
4.1180587 5.6328049 0.85674155 15
2.6530633 3.6276071 -0.55182445 78
4.111527 5.6197457 1.1028631 16
2.2145793 3.0258417 -0.32805422 72
4.1253576 5.6345224 1.3574153 13
2.2399347 3.0582416 -0.19866732 30
4.1395922 5.6518941 1.6173981 23
2.4547553 3.3503191 -0.072497301 6
4.1616325 5.6778283 1.8862734 3
2.2895942 3.1146262 -1.0357939 12
4.1227198 5.6062493 0.12146875 24
2.3707552 3.2226746 -0.92364907 56
2.3657057 3.2146354 -0.77582937 70
4.1306615 5.6108913 0.60956728 26
2.4938958 3.3863497 -0.66609806 3
4.1516299 5.6352525 0.85942268 16
2.6774833 3.6343064 -0.55426186 75
4.1475248 5.6276231 1.1072433 17
2.2215817 3.0132811 -0.32753128 68
4.1543221 5.6327291 1.3604681 13
2.2541528 3.0552263 -0.19898133 28
4.16855 5.6499557 1.6209973 23
2.4842489 3.3658631 -0.073020868 37
2.7837918 3.7703314 1.2557901 3
2.2976105 3.1039112 -1.0347586 9
4.1436672 5.5957623 0.12153856 24
2.3756297 3.2069647 -0.92139953 52
2.37869 3.209928 -0.77659267 67
4.1611099 5.6131692 0.61131036 27
2.4592228 3.3161795 -0.65389615 3
4.178575 5.6326127 0.86112887 15
2.700166 3.639755 -0.55645543 71
4.1767573 5.6281157 1.110059 16
2.2458143 3.0250938 -0.32962301 68
4.1729798 5.6189208 1.3604681 13
2.261889 3.0445282 -0.19877198 30
4.2012076 5.6548734 1.6263962 20
2.5073256 3.3736553 -0.073369913 45
2.780144 3.7393742 1.2485431 7
2.3136632 3.1040204 -1.0373468 9
4.177742 5.6028295 0.12199232 24
2.3827553 3.1943839 -0.92004979 37
2.3951914 3.2098904 -0.7785008 48
4.198771 5.6248841 0.61409938 27
2.4536586 3.2858479 -0.64951599 3
4.2055426 5.6298604 0.86283505 16
2.7092893 3.6255381 -0.55572426 68
4.2176685 5.6419797 1.1156907 17
2.2629905 3.0272048 -0.33066887 66
4.2033439 5.6207771 1.3642844 14
2.2779555 3.0450065 -0.19929534 30
4.2244258 5.6448536 1.6277459 21
2.5130959 3.3568785 -0.07319539 40
2.7931788 3.7296474 1.2485431 17
2.3175254 3.0866551 -1.034241 8
4.2140884 5.6105957 0.12248099 24
2.4067671 3.2031851 -0.9249987 35
2.4146397 3.2124951 -0.7811721 48
4.2279606 5.622932 0.61549383 27
2.4449263 3.2504263 -0.64419717 16
4.2418799 5.6373525 0.86624736 16
2.7243164 3.6192298 -0.55621171 68
4.2385244 5.6288023 1.1160036 17
2.2807341 3.0288372 -0.33171475 65
4.2394772 5.6280227 1.3696271 13
2.2957835 3.0466065 -0.19992337 30
4.2546606 5.6440787 1.6317949 22
2.5320199 3.3576672 -0.073404826 48
2.8271234 3.7476339 1.2578605 28
2.3282866 3.078546 -1.034241 9
4.2179585 5.5751233 0.12202723 8
2.4249909 3.204087 -0.92769814 37
2.4258394 3.2040462 -0.7811721 48
4.2535734 5.6160841 0.61636543 27
2.500397 3.3001277 -0.6557734 9
4.2735243 5.63833 0.86868477 16
2.7489243 3.6255181 -0.55864912 70
4.2748609 5.6360054 1.1203837 20
2.2937016 3.0240319 -0.33206338 62
4.2721519 5.630393 1.3738248 14
2.3136473 3.048121 -0.20055141 30
4.2814083 5.638504 1.6344943 22
2.5388873 3.3424377 -0.07326521 39
2.8390164 3.7362065 1.2573429 31
2.3331642 3.062717 -1.0316528 9
3.8495328 5.0514069 0.11085769 2
2.4467943 3.2095499 -0.93174726 34
2.4477227 3.2096088 -0.78460658 49
4.2852373 5.6170411 0.61810851 30
2.7000554 3.5379181 -0.70489377 21
4.3028159 5.6360021 0.87063468 16
2.7712033 3.628521 -0.56059903 70
4.3029041 5.6320353 1.1225739 30
2.3090827 3.0223389 -0.3327606 65
4.3001237 5.6263657 1.3764962 19
2.3364046 3.055892 -0.20159812 31
4.3081694 5.6328111 1.6371938 23
2.585777 3.3796122 -0.074277438 19
2.8449969 3.7170684 1.2542372 35
2.346194 3.0576186 -1.032688 9
3.8987994 5.0791821 0.11176521 2
2.4639149 3.208719 -0.93399686 30
2.4660883 3.2103863 -0.78689629 45
4.3108869 5.6099486 0.61898005 30
2.7099783 3.5253413 -0.70426804 35
4.3297243 5.6303878 0.87209707 16
2.7983775 3.6377053 -0.56352389 75
4.3141007 5.6060257 1.1203837 17
2.3281221 3.0253148 -0.3339808 58
4.2993793 5.5848742 1.3700087 11
2.3458395 3.0461347 -0.20149344 30
4.3147197 5.6007605 1.6322449 16
2.6524887 3.4418411 -0.075848162 6
2.8685713 3.7208843 1.2588959 28
2.3615775 3.0555248 -1.0347586 9
3.9238458 5.0750327 0.11197464 2
2.478678 3.2047226 -0.93534642 28
2.4856884 3.2126281 -0.78956765 42
4.3219085 5.5838366 0.61775988 22
2.7077563 3.4971166 -0.7005136 30
4.3213925 5.579145 0.86649108 13
2.8110576 3.6279156 -0.56352389 75
4.3239632 5.5784416 1.1178808 13
2.3386691 3.0171692 -0.3339808 63
4.3020048 5.5481124 1.364666 9
2.3552337 3.0363503 -0.20138879 27
4.3127408 5.557951 1.6241466 14
2.6620352 3.4294007 -0.075778343 4
2.8957596 3.7291589 1.2651075 17
2.3734148 3.0487874 -1.0352762 10
3.9267943 5.0423717 0.11155578 2
2.5018249 3.2114244 -0.93984544 27
2.5017142 3.2101269 -0.79109418 40
4.3242249 5.5467167 0.61531955 20
4.324966 5.5436811 0.8633225 12
2.826148 3.6212106 -0.56401139 76
4.3154488 5.5275025 1.1106849 13
2.3614469 3.0246923 -0.33572391 63
4.3092599 5.51759 1.3608499 9
2.3744261 3.0391266 -0.20212148 30
4.3093133 5.5136905 1.6155984 16
2.6518173 3.3917336 -0.075150065 4
2.9230421 3.7372878 1.2713192 14
2.3733153 3.0268013 -1.0306175 8
3.9443705 5.0286345 0.11155578 2
2.5226443 3.2149363 -0.94344473 22
2.5213909 3.2121842 -0.79376549 36
4.3263326 5.5096512 0.61287922 20
2.7174618 3.4594865 -0.69675916 21
4.3283477 5.5082583 0.86015391 12
2.8498116 3.6253698 -0.56620502 78
4.3115187 5.4829016 1.1047403 13
2.3744547 3.0195625 -0.33607253 61
4.3151422 5.4855394 1.356652 9
4.3140702 5.4802389 1.6101997 17
2.7341604 3.4720047 -0.077139638 28
2.9623692 3.7604477 1.2827072 7
2.3814709 3.0154669 -1.0295821 8
3.837934 4.8579264 0.1080653 2
2.5459354 3.2213993 -0.94794375 22
2.5459809 3.2203045 -0.79796326 30
4.3158746 5.4570117 0.60869569 19
2.702558 3.4158978 -0.68987608 26
4.3327641 5.4744382 0.85722905 10
2.8710735 3.6262946 -0.56791121 76
4.3171415 5.4507833 1.1012988 13
2.3825071 3.0081315 -0.33572391 63
4.3135366 5.4442844 1.3501645 8
2.5246072 3.1852608 -0.21300736 2
4.3186469 5.4468212 1.6048008 5
2.7462626 3.4624403 -0.077139638 8
2.9562666 3.7258699 1.274425 7
2.3967938 3.0131826 -1.0316528 8
2.564446 3.2216415 -0.95064318 24
2.5596533 3.214469 -0.7987265 25
4.3237238 5.4278889 0.60712689 9
2.6529117 3.3291998 -0.67423266 31
4.346899 5.4530702 0.8562541 6
2.8973296 3.6333225 -0.57059228 79
4.3361411 5.4356813 1.1012988 5
2.4066594 3.0169299 -0.33764133 65
4.2970033 5.3846912 1.3390976 4
2.5431864 3.1857951 -0.2136354 2
4.3133111 5.4012589 1.5958028 10
2.9571929 3.7004371 1.2692486 14
2.412128 3.0108292 -1.0337234 8
2.5805509 3.2187524 -0.95244277 31
2.9652703 3.6972952 0.24838647 2
2.5819118 3.2192986 -0.80216104 36
4.317709 5.3816805 0.60364062 11
2.7115018 3.3784599 -0.68612164 29
4.3236508 5.3852348 0.84796697 7
2.9199381 3.6355691 -0.57254225 100
4.3291078 5.3881726 1.0947285 15
2.4259119 3.0193825 -0.33886153 63
4.3047037 5.3558884 1.3356631 9
2.5542908 3.1768985 -0.2136354 2
4.3199267 5.3709836 1.5913037 15
2.6199427 3.256222 -0.072951064 14
2.9713023 3.6915975 1.2697662 35
2.4201977 2.9993834 -1.032688 8
2.69539 3.3392406 0.074905731 1
2.6027887 3.2233713 -0.95649189 30
2.6054714 3.2255383 -0.80597723 34
4.331461 5.3603764 0.60294342 19
2.687264 3.3244252 -0.67704844 13
4.3311911 5.3562169 0.84577334 12
2.9338603 3.6268969 -0.57278597 82
4.3255196 5.3453913 1.0890969 16
2.4477146 3.024837 -0.34043032 65
4.3097858 5.3240423 1.3314652 9
2.5867329 3.1943491 -0.21541482 6
4.3128858 5.3240757 1.5818559 15
2.6501768 3.2703614 -0.073474631 3
2.9939039 3.6932082 1.2739074 47
2.4306536 2.9909165 -1.032688 8
2.7158594 3.3406737 0.075150065 12
2.6287796 3.232408 -0.9618907 31
2.6266272 3.2286067 -0.80903018 39
4.3237348 5.3127737 0.59928286 19
2.69137 3.3058329 -0.6751712 6
4.337327 5.3256721 0.84333593 12
2.9327097 3.5997057 -0.57010484 49
4.3129539 5.2919769 1.0812751 13
2.4607763 3.0193624 -0.34077895 65
4.3146996 5.2922273 1.3272674 10
2.6205888 3.213161 -0.21729892 19
4.317894 5.2923775 1.5769069 14
2.7020385 3.3106649 -0.074591585 3
3.0116634 3.6887212 1.275978 43
2.4410768 2.9824152 -1.032688 8
2.7161031 3.3172474 0.074835919 2
2.6548657 3.2413025 -0.96728951 28
2.6453447 3.2285318 -0.81131989 34
4.31952 5.2699108 0.59614527 21
2.6678238 3.2536461 -0.66641092 7
4.3307085 5.2798061 0.8384611 12
2.9339254 3.575634 -0.56791121 61
4.3188686 5.26162 1.0781465 13
2.4713016 3.0107536 -0.34077895 66
4.3107171 5.2498255 1.3203983 10
2.6546085 3.2317731 -0.21918301 42
4.3202596 5.2576985 1.5710582 16
2.7757969 3.3769095 -0.076301925 17
3.0282035 3.6826622 1.2775309 39
2.4539309 2.9768567 -1.0337234 8
2.7073081 3.2830634 0.074277438 5
2.6723638 3.2395322 -0.96953911 30
2.6715939 3.237448 -0.81589925 36
4.3277388 5.2425117 0.59475076 21
2.6791642 3.2443144 -0.66641092 37
4.3301497 5.2416992 0.83480507 12
2.9476542 3.5669005 -0.56815493 64
4.3199358 5.2274723 1.0740792 13
2.4919512 3.0143943 -0.34217343 65
4.3077478 5.2090249 1.3139107 9
2.6633279 3.2194085 -0.21897365 39
4.3261604 5.2275734 1.5665591 16
2.7691317 3.3461173 -0.075813256 26
3.0416298 3.6740887 1.2780485 43
2.4593706 2.962328 -1.0316528 8
4.3314624 5.2172751 0.11836223 16
2.6880713 3.2366498 -0.97133869 34
2.6916621 3.238673 -0.81857067 40
4.3269072 5.204391 0.59213609 23
2.7000103 3.2475643 -0.66891384 28
4.3284688 5.2044168 0.83114898 12
2.9581943 3.5555823 -0.56791121 60
4.3242531 5.195663 1.0706376 15
2.5126576 3.0179262 -0.34356794 63
4.3111815 5.1781139 1.309713 10
2.6791 3.2166998 -0.21939236 37
4.3185229 5.1832561 1.557561 16
2.7718339 3.3256774 -0.075568922 42
3.0643342 3.675318 1.2821896 43
2.4716578 2.9571211 -1.032688 8
4.32656 5.1745081 0.11773393 10
2.7106063 3.2406995 -0.97538781 33
2.7212839 3.252315 -0.82429492 72
4.3275185 5.1701512 0.58987004 23
2.7240124 3.2532649 -0.67204249 36
4.3325844 5.1725392 0.82846785 12
3.0203109 3.6045747 -0.57741702 73
4.3195233 5.1532855 1.0650059 15
2.5341702 3.0233202 -0.34513673 58
4.3153534 5.1464863 1.3055153 10
2.698014 3.2165084 -0.22002037 42
4.3102856 5.1367993 1.5481132 16
2.7577124 3.2853496 -0.074870825 8
3.0696902 3.6557236 1.2790838 54
2.4657924 2.9292617 -1.0259588 6
4.2917876 5.0966592 0.11630284 2
2.8687932 3.4055967 -1.0280263 8
2.7376812 3.2488003 -0.82582134 33
4.3211422 5.1260695 0.58655816 23
2.7531796 3.264879 -0.67642272 57
4.3352556 5.1391749 0.82554299 12
3.0584807 3.624351 -0.58229178 73
4.314548 5.1110072 1.0593743 15
2.5472777 3.0175016 -0.34548536 58
4.315557 5.110393 1.3001726 11
2.7143817 3.2131734 -0.22043908 40
4.3093219 5.0993972 1.5413646 15
2.740761 3.2421072 -0.074102923 16
3.0849283 3.6479349 1.2801191 83
2.4710047 2.9147427 -1.0238881 6
4.3302426 5.106051 0.11686131 14
2.9071388 3.4267676 -1.0374742 9
2.741384 3.2302425 -0.82353163 22
4.3235345 5.0927291 0.5844664 23
3.0612197 3.604562 -0.7490083 82
4.3351755 5.1028295 0.82213068 12
3.0826821 3.6272669 -0.58448541 70
4.3182893 5.0793595 1.0559328 15
2.5616677 3.0131447 -0.3460083 52
4.3155642 5.0743589 1.2948298 10
2.7359343 3.2158492 -0.22127645 39
4.319519 5.075418 1.5386652 15
2.7637289 3.2462232 -0.074417062 17
3.1076634 3.6489112 1.2842602 79
2.4786561 2.9031603 -1.0228529 6
4.3168726 5.05441 0.1160236 20
2.9190819 3.4165995 -1.0374742 9
3.7956138 4.4409547 0.30616537 3
4.3205686 5.0533776 0.58167744 23
3.0968938 3.6208766 -0.75463998 94
4.3284402 5.0590081 0.81749964 12
3.0772529 3.5953712 -0.58107305 58
4.319293 5.0447469 1.0518655 15
2.5903118 3.0253718 -0.34844866 43
4.3051534 5.0264611 1.2864343 11
2.7497416 3.2093136 -0.22148579 39
4.327065 5.0484715 1.535066 15
2.8427267 3.3154967 -0.076232105 37
3.1291845 3.6483061 1.2878836 90
2.4887757 2.89449 -1.0228529 6
4.3227525 5.0256672 0.11570945 22
2.9322627 3.4078658 -1.0379242 8
4.3277802 5.0261874 0.58028293 23
3.1198285 3.6220169 -0.7571429 87
4.3279333 5.0228138 0.81408727 12
3.045718 3.5334857 -0.57278597 57
4.3213954 5.0116873 1.0481111 15
2.6086624 3.0253656 -0.34949452 31
4.3085685 4.995048 1.2822365 10
2.7661457 3.2057447 -0.22190447 43
4.3191929 5.0038338 1.526068 15
2.8634319 3.3161476 -0.076476447 42
3.152004 3.649056 1.2920247 83
2.5064514 2.8945479 -1.0259588 6
4.3153939 4.9818282 0.11504627 8
2.9556253 3.4108651 -1.0419734 9
3.1492682 3.6330523 -0.93458253 70
4.3270254 4.989975 0.57784253 21
3.1441014 3.6245351 -0.75995874 87
4.3402348 5.0016794 0.81311232 12
3.0632396 3.5288279 -0.57376093 60
4.316844 4.9712176 1.0427923 13
2.6401079 3.0403116 -0.35228351 45
4.3131022 4.965158 1.2784203 10
2.7799399 3.1990838 -0.22211383 37
4.3212905 4.9710779 1.5206691 16
2.8553066 3.2834985 -0.075952873 13
3.1824725 3.6584375 1.2992717 90
2.5089226 2.8770444 -1.0228529 6
4.3235569 4.9561849 0.11480194 16
2.9675128 3.4005277 -1.0419734 9
3.1645143 3.6249948 -0.93534577 93
4.3286924 4.956831 0.57575083 23
4.3367686 4.9625812 0.80921251 12
3.0859921 3.5300696 -0.57571083 57
4.3146639 4.9338145 1.0380992 15
2.9195776 3.3385348 -0.38801736 63
4.3148971 4.9323397 1.2738409 10
2.8029282 3.2028863 -0.22305585 37
4.321928 4.936903 1.5148203 16
2.8443553 3.2479365 -0.075359493 14
3.1952243 3.6473055 1.2992717 83
2.5112994 2.8595617 -1.0197471 6
4.3263121 4.9245377 0.11441798 24
2.9793656 3.3901479 -1.0419734 9
3.1849251 3.6227739 -0.93763542 90
4.3222842 4.9147615 0.57261318 23
3.1967294 3.6336422 -0.76652896 38
4.3396378 4.9310222 0.80653143 12
3.1035416 3.5252364 -0.57668579 57
4.3201108 4.9053807 1.0352834 15
3.0931818 3.512233 -0.40945768 63
4.317811 4.9010439 1.2696431 10
2.8259757 3.2065692 -0.22399792 37
4.3223829 4.9027824 1.5089717 16
2.8583214 3.2409868 -0.075429298 6
3.2092135 3.6375792 1.2997893 83
2.526386 2.856566 -1.0218177 6
4.3275762 4.8914332 0.11399912 22
2.9911807 3.3797278 -1.0419734 9
3.2085962 3.6228328 -0.94068843 94
4.3301678 4.8892016 0.57139301 23
3.2146327 3.6283765 -0.76778048 92
4.3357563 4.8920751 0.80263156 12
3.1263645 3.5262632 -0.57863569 54
4.3267226 4.8784466 1.0327804 16
3.1258674 3.5232282 -0.41207233 71
4.3096824 4.8558178 1.2620108 11
2.8416884 3.2006698 -0.22431193 37
4.3265338 4.8730912 1.5044726 15
2.8882058 3.2519238 -0.075917974 4
3.2411389 3.6480162 1.3075538 83
2.5394082 2.850172 -1.0228529 6
4.3281775 4.8561335 0.11354536 22
2.9892828 3.3527408 -1.0370244 8
3.2349224 3.6256983 -0.94450456 83
4.3294873 4.8524861 0.56895268 23
3.2384338 3.6283588 -0.7702834 89
4.3377914 4.8583827 0.7997067 12
3.1445563 3.5207036 -0.57961065 34
4.3274636 4.8434072 1.0287131 16
3.1560194 3.53106 -0.41433838 73
4.3169813 4.8282819 1.2589579 11
2.8520679 3.188745 -0.22420727 36
4.3196797 4.8296037 1.4959245 14
3.2561209 3.6392131 -0.085237555 86
3.2673712 3.6505082 1.3127302 79
2.5550015 2.8465946 -1.0249234 6
4.3325863 4.8253589 0.11319631 22
2.9989462 3.3388631 -1.0361246 8
3.2554328 3.6231458 -0.94679433 83
4.3379197 4.8262134 0.56773251 23
3.2609551 3.6267483 -0.77247345 84
4.339642 4.8247371 0.79678184 12
3.0997443 3.4462407 -0.56912988 12
4.3245234 4.8062463 1.0240202 16
3.1776571 3.5303869 -0.41555858 77
4.3206739 4.798593 1.2551417 12
2.8792207 3.196579 -0.22546332 33
4.3182521 4.7942257 1.4896258 14
3.2594318 3.6174283 -0.084993221 84
3.2943225 3.6548645 1.3184243 82
2.551475 2.8237729 -1.0197471 6
4.3378353 4.799098 0.11291707 22
3.0139234 3.3332355 -1.0374742 6
3.2700627 3.615243 -0.94755751 88
4.3325105 4.7881651 0.56494349 22
3.2915237 3.6364172 -0.77685362 84
4.3382955 4.7911911 0.7936132 13
3.1004958 3.4241717 -0.56717998 9
4.3178926 4.7669902 1.0187013 15
3.1973748 3.5286877 -0.41660443 75
4.3207388 4.7667837 1.2505622 11
2.9018795 3.2003305 -0.22640537 30
4.3236542 4.7683311 1.4860266 14
3.2767847 3.6125228 -0.085132837 76
3.3168087 3.6553662 1.3225653 86
2.5608242 2.8152969 -1.0197471 6
4.3321939 4.7610207 0.11235859 22
3.0223365 3.3203411 -1.0365745 6
3.3005397 3.624701 -0.95290023 83
4.3242159 4.7472572 0.5618059 22
3.3062248 3.6284029 -0.77747941 85
4.3421264 4.7635741 0.79141963 12
3.1124287 3.4133284 -0.56717998 3
4.3230305 4.7409673 1.0161984 15
3.2090578 3.5180662 -0.41660443 75
4.3179975 4.7321248 1.2452196 10
3.2248647 3.5329175 -0.25068927 75
4.3258185 4.7373791 1.4810777 15
3.3022292 3.6164048 -0.08548189 82
3.3289132 3.6443462 1.3225653 86
2.5810742 2.8177373 -1.0238881 5
4.3263459 4.7230358 0.11180011 22
3.0070002 3.2815642 -1.0275764 6
3.3211308 3.6218419 -0.95518982 80
4.3246002 4.7145143 0.5597142 20
3.3262517 3.6261525 -0.7793566 82
4.3377633 4.7272124 0.78776348 12
3.1156757 3.3942149 -0.56571752 6
4.3275294 4.7127519 1.0133826 15
3.2280593 3.514179 -0.41747603 71
4.3084307 4.6903095 1.2379688 10
3.255481 3.5427933 -0.25215468 67
4.3283181 4.7086596 1.4765787 15
3.3337834 3.6254623 -0.085970551 82
3.3599219 3.6526113 1.3298123 82
2.5825474 2.8006411 -1.0207824 5
4.3292484 4.6932063 0.11145107 22
2.9748247 3.2237871 -1.0127296 9
3.3491039 3.628119 -0.95976931 82
4.3293962 4.6884379 0.55831969 20
3.3496113 3.6261284 -0.78185952 84
4.3313365 4.6872559 0.78361994 12
3.1302006 3.3862329 -0.56620502 6
4.3251772 4.6773133 1.0090024 15
3.253221 3.5180836 -0.41921914 78
4.3167768 4.6665955 1.2356791 10
3.2705417 3.5343392 -0.25236401 65
4.3235464 4.6706424 1.4693804 15
3.3572872 3.6255419 -0.086249799 82
3.3857808 3.6550324 1.3349887 78
2.6001956 2.800102 -1.0238881 6
4.3347163 4.6663461 0.11117183 22
2.9422829 3.1662755 -0.9978829 27
3.3657591 3.6207194 -0.96091413 67
4.3280964 4.6543303 0.55605364 22
3.3757017 3.6288781 -0.78498822 84
4.3341498 4.6575747 0.78118259 12
3.1338856 3.3665688 -0.56474262 3
4.3293605 4.6491776 1.0061866 15
3.2763429 3.5183716 -0.42061362 76
4.3183212 4.6356955 1.2314813 10
3.2883048 3.5287468 -0.2527827 69
4.3159065 4.6298623 1.461282 15
3.3781059 3.6225746 -0.086459227 84
3.4196017 3.6657941 1.3432709 75
2.6125927 2.7938313 -1.0249234 6
4.3318543 4.6307406 0.11068317 22
2.9346766 3.1360643 -0.99158418 46
3.3864264 3.6175487 -0.96320391 38
4.3306994 4.62465 0.5543105 22
3.4005039 3.6300466 -0.78780407 95
4.3395219 4.6308303 0.77923268 12
3.0668764 3.2716091 -0.55060571 2
4.3212419 4.608099 1.0005549 16
3.2913311 3.5098195 -0.42096224 75
4.318357 4.6034122 1.2269019 12
3.3142703 3.5318103 -0.25382942 67
4.3160353 4.5977201 1.4558831 15
3.3962052 3.6165922 -0.086598843 82
3.4297328 3.6510184 1.3422357 75
2.6090841 2.7706313 -1.0197471 6
4.3301659 4.5966702 0.1102294 22
2.9349132 3.1144562 -0.98798501 49
3.4084594 3.6157069 -0.96587521 38
4.3290467 4.5906596 0.55204445 22
3.422642 3.6282136 -0.78999412 86
4.3488488 4.6084342 0.77801394 12
3.064652 3.2464478 -0.54816836 6
4.3237381 4.5786262 0.99742627 16
3.2994583 3.4939644 -0.4204393 58
4.318223 4.5711837 1.2223225 12
3.3375537 3.5318322 -0.25466678 67
4.3213477 4.5712981 1.452284 14
3.428045 3.6250551 -0.087087512 84
3.4504228 3.6474435 1.3453414 78
2.6187389 2.7615075 -1.0197471 6
4.325542 4.5597639 0.10970583 22
2.9256461 3.0829875 -0.98123646 48
2.9479766 3.1054366 -0.83230883 22
4.3285809 4.5581851 0.54995275 22
4.3348212 4.5615716 0.77265167 12
2.9419301 3.0947344 -0.52428192 13
4.3260822 4.54919 0.99429762 16
2.9107242 3.060838 -0.36954033 25
4.3138547 4.5347466 1.2165983 12
3.3526146 3.5230548 -0.25487614 71
4.3292174 4.5477161 1.4495846 10
3.4448142 3.6174121 -0.087192222 76
3.4764578 3.6493657 1.3505179 75
2.6403711 2.7649231 -1.0244058 8
4.3248582 4.5272846 0.10928696 22
2.9229257 3.0586684 -0.97673744 46
4.020298 4.2055335 0.30490932 3
2.9289544 3.063906 -0.82391334 52
4.3375812 4.5358462 0.54908115 22
2.9289985 3.0618119 -0.67110395 43
4.330132 4.5248985 0.76899564 12
2.930752 3.0615022 -0.52038211 33
4.3310046 4.5226483 0.99179459 15
2.9117439 3.0405862 -0.36832017 58
4.3120012 4.5012317 1.2116373 11
3.3676567 3.5142136 -0.25508547 69
3.4781809 3.6270156 -0.08771579 82
3.5025501 3.6511486 1.3556943 82
2.6553631 2.7612586 -1.0264764 8
4.332314 4.5035172 0.10907754 22
2.9268296 3.0414257 -0.97448796 52
4.3313775 4.4993944 0.3273091 13
2.9301014 3.0437617 -0.82124197 66
4.3381824 4.5048943 0.54716372 22
2.9328165 3.0444548 -0.66953957 70
4.3321271 4.4954605 0.76655823 12
2.9276416 3.0369639 -0.51794475 51
4.327569 4.4875946 0.98741448 16
2.9195743 3.027535 -0.36797154 60
4.3167839 4.4748473 1.2085842 11
3.4020915 3.525434 -0.25676021 73
3.6015675 3.7308354 1.1971895 2
3.4963777 3.6206055 -0.087855421 82
3.5340619 3.658354 1.3629411 82
2.6609533 2.7478101 -1.0249234 6
4.3354869 4.4754391 0.1087634 22
2.9320045 3.0255921 -0.97268838 63
4.3428855 4.4799466 0.32699507 26
2.9284089 3.0208294 -0.81780744 70
4.3330765 4.4682679 0.54454905 22
2.9393003 3.0299449 -0.66860098 66
4.3477917 4.4803119 0.76655823 12
2.9409909 3.0295737 -0.5184322 53
4.322566 4.4512033 0.98272139 16
2.9259615 3.0130363 -0.3674486 67
4.3214326 4.4484868 1.2055314 11
3.5312989 3.6338532 -0.26555267 92
3.6240785 3.7280216 1.2003388 5
3.5173581 3.6169808 -0.088064842 78
3.554894 3.6543036 1.366047 85
2.6705296 2.7385042 -1.0249234 6
4.3385139 4.4473963 0.10844925 22
2.9479899 3.0209198 -0.97448796 61
4.3473368 4.4533253 0.32615772 22
2.9499075 3.0218267 -0.82086033 67
4.3263769 4.4303074 0.54176009 20
2.9581392 3.0281463 -0.67047822 64
4.3439822 4.44523 0.76314586 12
2.9584877 3.0263865 -0.51965094 50
4.3284063 4.4262037 0.98053133 15
2.9420309 3.0085042 -0.36814582 67
4.3177156 4.4137263 1.2001886 11
3.5565348 3.6343505 -0.26649469 97
3.6588781 3.7376316 1.2075372 5
3.5439551 3.6189675 -0.088413894 78
3.5757403 3.6501515 1.3691529 85
2.6692419 2.7181404 -1.0207824 6
4.3301897 4.4079728 0.10785587 24
2.9680789 3.0203395 -0.97763729 48
4.3488507 4.4238834 0.325111 22
2.9741988 3.0255139 -0.82467651 34
4.3306379 4.4038143 0.54036558 22
2.971463 3.0206182 -0.67110395 24
4.3385839 4.4088197 0.75948983 12
4.3327432 4.3998075 0.97802842 15
3.083925 3.131659 -0.38453114 21
4.3138084 4.379046 1.1948459 11
3.5748065 3.627605 -0.26691341 97
3.6937928 3.7470407 1.2147356 2
3.5677996 3.6179647 -0.088693127 75
3.6074529 3.6569021 1.3763998 77
1.8487477 1.8695157 -0.70450544 1
4.3314881 4.3786135 0.10750683 22
4.3488111 4.3930612 0.32395959 26
4.3333678 4.3759284 0.53879678 22
4.3343863 4.3739071 0.75607747 12
1.879684 1.8961587 -0.32782856 1
4.3355556 4.3720336 0.97521257 16
3.2070704 3.2340534 -0.39847603 17
4.3152385 4.3500266 1.1910298 12
3.5987029 3.6264448 -0.26775077 95
3.7123413 3.7396572 1.2165353 2
3.5987222 3.6239371 -0.089146897 69
3.6365349 3.660733 1.3826115 77
1.856626 1.8644195 -0.70502311 46
4.3312192 4.3478866 0.10712288 22
4.3429699 4.356636 0.32238951 26
4.3387675 4.3509011 0.53757662 22
1.8568711 1.8614142 -0.4164286 46
4.342618 4.3517232 0.75485879 12
1.84001 1.8432245 -0.31978518 41
4.3354378 4.3414965 0.971771 16
3.222564 3.2270675 -0.39899898 26
4.3192978 4.3238244 1.1879768 13
3.631104 3.6336408 -0.26921618 91
3.7363951 3.7377005 1.2201345 2
3.6212487 3.6212499 -0.089391224 76
3.6711504 3.6698701 1.3908936 65
1.8453392 1.8401941 -0.69829381 46
4.3392901 4.3256812 0.10694835 22
1.8593594 1.8528794 -0.60601819 54
4.3411703 4.3245358 0.32113346 22
1.8554511 1.8483413 -0.50907844 72
4.3369856 4.3188596 0.53548485 22
1.8661577 1.8577077 -0.41705433 58
4.3451171 4.3239369 0.7526651 12
1.8633208 1.853591 -0.32271007 78
4.328156 4.304049 0.96676511 17
3.2366354 3.2186081 -0.3993476 19
4.3287945 4.3031855 1.1864504 13
3.6536818 3.6307993 -0.2699489 87
3.7563329 3.7315011 1.2223841 1
3.6381233 3.6128154 -0.089495942 73
3.6839373 3.6570342 1.3908936 69
1.8407704 1.8228661 -0.69415271 52
4.3316236 4.2879992 0.10638987 22
1.8575044 1.8381538 -0.60331875 55
4.3477211 4.3009267 0.32050541 22
1.8535178 1.8335685 -0.50678873 58
4.3222866 4.2742739 0.53182435 20
1.869821 1.8484054 -0.4164286 70
4.3503013 4.298975 0.75095892 12
1.8613068 1.8387045 -0.32124761 76
4.3333139 4.2791996 0.96457505 16
4.3186407 4.2632213 1.1795813 13
3.6805506 3.6320512 -0.27099562 89
3.7832079 3.7320528 1.2268831 1
3.6663754 3.6155381 -0.089879893 75
3.7035601 3.6509326 1.3934819 65
1.8429894 1.8123665 -0.69259977 55
4.3266015 4.2532258 0.1059012 22
1.8555694 1.8234636 -0.60061932 61
4.3456097 4.26893 0.31924936 26
1.8585058 1.8257118 -0.50640708 68
4.3258066 4.247993 0.53042984 22
1.8593453 1.8252616 -0.41267416 66
4.3440275 4.2629085 0.74730289 12
1.8592106 1.8238556 -0.31978518 75
4.3312988 4.2474513 0.96082056 16
4.3152709 4.2302523 1.1746202 13
3.7017641 3.6275694 -0.27162364 48
3.8129158 3.735189 1.2322818 1
3.6989772 3.6223047 -0.090368561 76
3.7287056 3.6501458 1.3981405 69
1.8562158 1.8126702 -0.69518799 58
4.3314066 4.2283187 0.10565687 22
1.8549492 1.8101707 -0.59836978 63
4.3390403 4.2328134 0.31767929 19
1.8676786 1.8219548 -0.50717038 68
4.3363304 4.228693 0.52990693 22
1.8671194 1.8201395 -0.41298702 68
4.3389788 4.228322 0.74389052 12
1.8570349 1.8090432 -0.31832278 77
4.3347764 4.221282 0.95831764 16
3.7055163 3.6084971 -0.45251262 42
4.3131294 4.1987314 1.1700408 12
3.8357081 3.7313697 1.2354312 1
3.7288013 3.626101 -0.090787418 84
3.760818 3.6559591 1.4053875 77
1.8694656 1.8129045 -0.69777614 54
4.3403959 4.2076063 0.10551725 22
1.8668549 1.8091089 -0.60016942 63
4.3337054 4.1981874 0.31621388 19
1.8726165 1.8140585 -0.50678873 66
4.3338885 4.1968994 0.52781516 22
1.8791394 1.8191063 -0.41423854 68
4.3408728 4.200727 0.74169689 12
1.8547773 1.794269 -0.31686032 75
4.3310266 4.1882725 0.9542504 16
3.6278596 3.5082827 -0.441531 16
4.3192897 4.1754642 1.1677511 12
3.7485428 3.6224568 -0.27319372 63
3.8543172 3.7233729 1.2372309 1
3.7500677 3.6213965 -0.090996847 80
3.7930143 3.6615942 1.4126344 80
1.8771738 1.8077084 -0.69829381 52
4.3392105 4.1771731 0.1051333 22
1.8843923 1.8133907 -0.60376859 56
4.3454533 4.1802659 0.31600451 19
1.8845965 1.8129556 -0.50831515 64
4.3312798 4.1651716 0.5257234 22
1.8954467 1.8221183 -0.4164286 66
4.342627 4.173171 0.73950326 12
1.8581666 1.7850326 -0.31637284 73
4.3199739 4.148499 0.94861871 15
3.7392421 3.5908184 -0.4535585 48
4.3210907 4.1481256 1.1643165 12
3.6617327 3.5139294 -0.26597136 8
3.8926048 3.7341778 1.245329 1
3.7713432 3.6165912 -0.091206275 80
3.8113515 3.6536779 1.4147049 80
1.8764918 1.7944684 -0.69570565 16
4.3335257 4.1426592 0.10464463 20
1.8921192 1.8081486 -0.60421854 10
4.3470225 4.1526542 0.31506249 26
3.7875066 3.618156 -1.0181569 26
4.3285012 4.1335168 0.52363169 20
1.9046527 1.8182191 -0.41705433 24
4.3399353 4.1415401 0.73657835 12
1.8643866 1.7785351 -0.31637284 75
4.3201327 4.1197629 0.94549 15
3.6436124 3.4746199 -0.44048512 22
4.3199139 4.1181149 1.1601188 12
3.6407218 3.4694347 -0.2635639 14
3.9366567 3.7501395 1.255227 1
3.804219 3.62271 -0.091694944 80
3.8380754 3.6536705 1.4198813 80
2.7498705 2.611356 -1.0161237 6
4.3305573 4.1109848 0.10422577 20
3.2328267 3.0678368 -1.0289261 6
4.3498983 4.1264591 0.31422511 22
3.8015366 3.6062651 -1.0185385 33
4.3313365 4.1074147 0.52223718 17
3.748863 3.5538085 -0.81815231 9
4.3370738 4.1099815 0.73365355 12
1.8676999 1.7692871 -0.31588537 73
4.3301849 4.1005816 0.94455141 16
3.6470399 3.4536593 -0.43943924 8
4.3085999 4.0787153 1.1532496 12
3.6470051 3.4512165 -0.26314521 22
3.945477 3.7323561 1.2538772 4
3.8328245 3.6245215 -0.092078894 74
3.8732653 3.6614876 1.4281635 76
2.7659974 2.6083677 -1.0187118 6
4.3361521 4.0876126 0.10401635 20
3.2236578 3.0378246 -1.0226275 6
4.3468313 4.0948153 0.31296906 26
3.8269639 3.6050878 -1.021973 31
4.3340454 4.0813422 0.52084273 17
3.7411065 3.5217474 -0.81377214 9
4.3369389 4.081212 0.73121613 12
1.8622981 1.7518754 -0.31393546 75
4.3387132 4.0800314 0.94329995 16
3.6460075 3.4286261 -0.43787044 6
4.3156581 4.0569282 1.1513416 13
3.64011 3.4206834 -0.26178449 16
3.9655805 3.725235 1.2561266 6
3.8716912 3.635761 -0.092707187 70
3.9001083 3.6611657 1.4333398 80
2.7863669 2.6092596 -1.0228529 6
4.3357944 4.0587859 0.10366729 20
3.2427807 3.0345418 -1.0253268 6
4.3435969 4.0632429 0.31171298 26
3.8466942 3.5984123 -1.0238811 20
4.3438988 4.0621076 0.52031976 19
3.3118038 3.0958817 -0.71803427 6
4.3424568 4.0579147 0.72975373 11
1.8538954 1.7318135 -0.31149808 77
4.3356051 4.0486822 0.93954557 16
3.6579545 3.4158773 -0.43787044 6
4.3240538 4.036479 1.1498151 14
3.6564081 3.4120448 -0.26209849 14
3.9928105 3.7246616 1.2606257 7
3.8828976 3.6208594 -0.092672281 68
3.9340606 3.6672897 1.4411045 68
2.7897973 2.5942574 -1.0207824 6
4.3426137 4.036818 0.10349277 22
3.2590642 3.0285091 -1.0271264 4
4.3394895 4.0325022 0.31045693 26
3.3514736 3.1132946 -0.88916999 6
4.3361526 4.0265818 0.51770508 19
3.3327255 3.0937092 -0.72022432 56
4.3464069 4.0332832 0.72804755 11
1.8628404 1.7280313 -0.31198555 80
4.3229399 4.0100994 0.93391389 16
3.6377161 3.3732824 -0.43403557 9
4.3251562 4.0093517 1.1463805 10
3.6653669 3.3965447 -0.26188916 10
4.0258036 3.7292411 1.2669244 6
3.9066186 3.6188357 -0.092951514 68
3.9518688 3.6594746 1.4431751 64
2.7846441 2.5713966 -1.015606 6
4.3280621 3.9966199 0.10282958 20
3.2776802 3.0256166 -1.0298259 6
4.3476672 4.0119133 0.31003824 26
4.3150301 3.9790046 0.51352161 17
3.9093254 3.6048937 -0.84224325 24
4.3218098 3.983865 0.72171032 11
1.8656404 1.7191542 -0.31149808 75
4.3064022 3.9668789 0.92734367 12
3.6333463 3.3457191 -0.43211815 7
4.3167658 3.9750371 1.1406562 10
3.6824872 3.3897827 -0.26230782 8
4.0582252 3.7343431 1.2732229 3
3.9324715 3.617362 -0.09326566 72
3.9703078 3.6508873 1.4452456 64
2.7988508 2.5673707 -1.0176765 6
4.3242998 3.9652712 0.10241073 20
3.2796016 3.0062566 -1.0271264 6
4.3425026 3.9791698 0.30867749 26
3.316138 3.0386803 -0.87428689 106
4.3252602 3.9619853 0.51317304 17
3.9262533 3.5952311 -0.84318191 26
4.3312984 3.9647329 0.72097909 9
1.8716297 1.7126319 -0.31149808 77
4.2546291 3.8918281 0.91326451 12
3.6576514 3.3457558 -0.43368697 7
4.3030877 3.9347713 1.1334054 9
3.6987209 3.3809493 -0.26262185 2
4.081305 3.7293568 1.2763723 1
3.9657457 3.622493 -0.093754329 74
4.0001478 3.6526368 1.4514573 64
2.8106515 2.5601878 -1.0187118 8
4.2967157 3.9124537 0.10143339 20
3.2843118 2.9895425 -1.0253268 6
4.2987533 3.9115655 0.30459529 15
4.3213787 3.9307745 0.51108128 19
3.9387803 3.5815029 -0.84318191 16
4.3436413 3.9482553 0.72073537 12
1.8599669 1.6900681 -0.30857319 80
4.3383756 3.9407043 0.92828226 18
3.6575103 3.3222497 -0.43229246 7
4.3124356 3.9157689 1.1322607 10
3.7075417 3.365334 -0.26241252 2
4.1159453 3.7347317 1.2831209 1
3.9991016 3.6274376 -0.09424299 72
4.032908 3.6568193 1.4587041 64
2.8195703 2.5503619 -1.0187118 6
4.3311133 3.9162068 0.10192205 20
3.2947266 2.9780607 -1.0253268 4
4.3346086 3.9166222 0.30616537 25
3.9184875 3.5406275 -1.0265524 13
4.3321166 3.9129939 0.51073265 19
3.9717829 3.5862665 -0.84756202 22
4.339715 3.9171066 0.71781051 12
1.8570126 1.6755859 -0.30711079 80
4.3315682 3.9070146 0.92390203 14
3.6572485 3.2987878 -0.43089798 5
4.3173308 3.8928025 1.1299709 10
3.710366 3.3443477 -0.26178449 2
4.1463284 3.7359955 1.2885196 1
4.0236273 3.6241617 -0.094522238 74
4.0657487 3.660816 1.4659511 70
2.8284564 2.5405033 -1.0187118 6
4.3358283 3.8930495 0.10171262 20
3.3138041 2.9743509 -1.0280263 4
4.3408222 3.8947973 0.30564201 25
3.9279015 3.5243049 -1.0257893 13
4.3279505 3.8818851 0.50864094 21
4.0416379 3.6238093 -0.85976392 40
4.3385787 3.8886862 0.7153731 12
1.8584144 1.6651199 -0.30637956 85
4.3186946 3.8681467 0.91827041 13
3.6628056 3.280683 -0.43020076 5
4.2080293 3.7677033 1.0979151 10
3.7130871 3.323384 -0.26115644 2
4.1332045 3.6981091 1.2804214 3
4.051158 3.6234267 -0.094871283 78
4.0885825 3.655616 1.4695747 61
2.8233287 2.5172637 -1.0135354 5
4.3142395 3.8452003 0.10087491 20
3.3217728 2.9595933 -1.0271264 4
4.3021975 3.8331201 0.3019785 28
3.9407933 3.5098839 -1.0257893 11
4.2201295 3.7573552 0.49434736 22
4.0755501 3.6273584 -0.86414409 54
4.2089453 3.7447648 0.69173044 13
1.8630219 1.6569774 -0.3061358 82
4.1801395 3.7178292 0.88604486 5
3.6584256 3.2526748 -0.4282833 7
4.1675162 3.7039971 1.0837952 3
3.7043409 3.2911801 -0.25969106 2
4.1481867 3.6842303 1.2808713 8
4.0787315 3.6225433 -0.095220335 72
4.1186547 3.6567118 1.4757862 74
2.8378837 2.5125163 -1.015606 6
4.1667638 3.6890383 0.097140096 21
3.3344884 2.951144 -1.0280263 4
4.1898999 3.7069104 0.29318607 23
3.9574304 3.5000112 -1.0269341 10
4.1615701 3.6792574 0.48598042 8
4.0905166 3.6164391 -0.86476982 64
4.1915908 3.7044964 0.68685567 2
1.8625549 1.6455344 -0.30516088 82
4.1723628 3.6849091 0.88166475 48
3.6563163 3.2280161 -0.42671451 9
3.6762993 3.2445171 -0.25696957 4
4.1793799 3.6872129 1.28672 22
4.1078501 3.6228323 -0.095604278 68
4.1531296 3.6614773 1.4835509 66
2.8520031 2.508194 -1.0176765 6
4.1691031 3.6652277 0.096895754 52
3.3242774 2.9214756 -1.0217277 4
4.1713033 3.6645813 0.29098797 54
3.9645913 3.48298 -1.0257893 12
4.0808496 3.5825889 -0.86007679 16
4.182116 3.6702025 0.68319964 50
1.863811 1.6350949 -0.30442965 76
4.1970825 3.6807413 0.88416773 90
3.6699972 3.2184999 -0.42706311 9
4.1616287 3.6483679 1.0757812 55
3.6575603 3.2053382 -0.25487614 1
4.1848965 3.6661799 1.2844704 35
4.1355143 3.6216462 -0.09595333 20
4.1891418 3.6673191 1.4918331 66
2.8607416 2.4982226 -1.0176765 6
4.1803665 3.6493361 0.096860856 96
3.3315163 2.9072933 -1.0208279 4
4.1795554 3.6460583 0.29067394 83
3.9589725 3.4536316 -1.0212098 15
4.1865177 3.6508453 0.48598042 100
4.1692677 3.6345253 -0.87603313 38
4.1874199 3.6490595 0.68198091 55
1.8560363 1.6168433 -0.30223599 72
4.1830878 3.6427202 0.87853605 76
3.6766996 3.2017469 -0.4265402 11
4.1950703 3.6518641 1.0811238 48
3.6476338 3.1741946 -0.25341073 1
4.2020769 3.6553898 1.2858201 23
4.0832467 3.5507638 -0.094452426 2
4.2179561 3.6666141 1.497527 57
2.8592286 2.4793615 -1.0140531 8
4.1885457 3.6307933 0.096756138 99
3.3534272 2.9058552 -1.0244272 4
4.1982965 3.6366763 0.2910926 100
3.9828763 3.4500735 -1.0242627 12
4.2007413 3.6375146 0.48615471 90
4.198359 3.6341698 -0.87947464 84
4.2181463 3.6500068 0.68490577 49
1.8571646 1.6064591 -0.30150479 78
4.2032499 3.6345553 0.88010043 79
3.7074463 3.2058334 -0.42880625 1
4.2211609 3.6487522 1.0845585 45
4.2384081 3.6610799 1.2930186 22
4.1168065 3.5547845 -0.094941087 2
4.2395029 3.6594429 1.5006329 61
2.8678641 2.4693677 -1.0140531 8
4.2087731 3.6226721 0.096930668 91
3.3665037 2.8966744 -1.0253268 4
4.2245908 3.6337242 0.29203469 100
3.9978693 3.4387128 -1.025026 10
4.2224784 3.6306219 0.48720059 90
4.2185106 3.6259298 -0.88103902 46
4.2459154 3.6482003 0.68734318 53
1.8627614 1.5999662 -0.30150479 76
4.2368941 3.6378756 0.8844806 74
1.9651219 1.68729 -0.22660492 9
4.2502561 3.6480637 1.0887562 46
1.9811254 1.6998301 -0.1368062 16
4.2748299 3.6665611 1.300217 21
4.0988259 3.5143631 -0.09424299 2
4.2639866 3.6546783 1.504774 74
2.8794036 2.4618521 -1.0150883 8
4.2320318 3.6170561 0.097175002 89
3.3647423 2.8747778 -1.0217277 4
4.2554746 3.6345196 0.2932907 100
4.0098491 3.4247358 -1.025026 11
4.2487607 3.6275067 0.48876941 88
4.1755471 3.563735 -0.86946285 100
4.2707062 3.6436632 0.68929303 52
1.8713553 1.5960308 -0.30199227 76
4.2721148 3.6422892 0.88917363 85
1.9649345 1.6752498 -0.22590767 10
4.2689424 3.638298 1.0902827 52
1.9748849 1.6825416 -0.13596882 13
4.3054047 3.6667802 1.3056159 21
4.312027 3.6698208 1.5171974 100
2.8923972 2.4555376 -1.0166413 8
3.362869 2.8529286 -1.0181284 4
4.2742281 3.6248112 0.29370943 74
4.0277681 3.4157979 -1.0265524 10
4.2857141 3.6332667 0.49155837 94
4.3061175 3.6479814 0.69294918 68
1.8587365 1.5740948 -0.29906741 78
4.3134494 3.6516035 0.89511812 100
1.9753329 1.6722423 -0.22643061 10
4.3040953 3.6423991 1.096007 115
1.9654967 1.6627396 -0.1349221 13
4.3211546 3.6542449 1.3065157 123
4.3292346 3.6584904 1.5187503 100
2.8965204 2.4416902 -1.0150883 8
3.3728065 2.8411734 -1.0181284 4
4.3006053 3.6214464 0.29465145 83
4.0321593 3.3953938 -1.0246444 8
4.3349533 3.6490772 0.49574184 100
3.6531792 3.0740843 -0.75620425 3
4.3355365 3.6469831 0.69563025 85
1.8566233 1.5612084 -0.2978487 74
4.3276811 3.6377964 0.89543104 108
1.9765821 1.6614912 -0.22590767 10
4.3167844 3.6273518 1.096007 102
1.9774065 1.6610066 -0.13534079 13
4.3308988 3.6366336 1.3056159 28
4.0986447 3.4403915 -0.093405277 2
4.3404999 3.6421132 1.5182326 100
2.9020636 2.4290838 -1.0140531 8
4.2497401 3.5558572 0.096721239 3
3.3916717 2.8368852 -1.0208279 3
4.3408017 3.6294718 0.29653555 61
4.0319386 3.3712223 -1.0215914 10
4.3293195 3.6185911 0.49365011 100
4.3505816 3.6350734 -0.89793396 4
4.3467178 3.6305537 0.69538653 68
1.8590138 1.5521739 -0.29736122 74
4.3145709 3.6011505 0.89011216 100
1.9762511 1.6494753 -0.22521043 10
4.323391 3.6072288 1.0944804 64
1.9831921 1.6540946 -0.13534079 13
4.3315916 3.6115112 1.3020166 28
4.11063 3.4260628 -0.093405277 2
4.3309236 3.6083918 1.510468 93
2.9045818 2.4140003 -1.0119824 8
4.2467461 3.5282214 0.096372187 3
3.4075496 2.8300095 -1.0226275 4
4.3374467 3.6022997 0.29548883 100
4.0467024 3.359637 -1.0223546 8
4.3204608 3.5856421 0.49120975 100
3.682153 3.0548117 -0.75776863 1
4.3440838 3.6026874 0.69294918 61
1.8626235 1.544733 -0.2971175 78
4.3188863 3.5805182 0.8885479 85
1.971259 1.6336671 -0.22399026 11
4.3178134 3.5770867 1.0899011 60
1.9858776 1.6446134 -0.13513145 13
4.3405437 3.5946403 1.3011169 28
4.0449505 3.3486538 -0.091660038 2
4.3175645 3.57307 1.5016681 82
2.9185295 2.4092751 -1.0140531 8
4.2769308 3.5293937 0.096791051 5
3.4259357 2.8261337 -1.0253268 4
4.3447471 3.5840824 0.29517484 100
4.0608497 3.3486981 -1.0231179 10
4.3246403 3.5649595 0.49033821 100
3.7288494 3.0727348 -0.7652775 1
4.3376198 3.573117 0.69002426 61
1.8677354 1.5385482 -0.2971175 78
4.3292108 3.5649219 0.88823503 100
1.9843565 1.6334528 -0.22486182 11
4.3190389 3.5540173 1.0872297 58
1.9882354 1.6354817 -0.1349221 13
4.3373895 3.567848 1.2966179 26
4.1116385 3.3809435 -0.092916615 2
4.3234196 3.5538273 1.4995975 82
2.9265037 2.3995829 -1.0140531 8
4.2731466 3.5025136 0.096442007 7
3.4413176 2.8196983 -1.0271264 6
4.3417811 3.5562377 0.29412812 100
4.0749702 3.3377001 -1.0238811 6
4.3318143 3.5468113 0.48981526 100
3.7329035 3.0553486 -0.76402605 1
4.3325458 3.5448847 0.68734318 60
1.8638753 1.5244781 -0.29565504 76
4.3309216 3.5410364 0.88604486 94
1.9885039 1.6252546 -0.2246875 11
4.3125606 3.5247648 1.0826503 52
1.990555 1.6263516 -0.13471277 13
4.3256674 3.5329633 1.2894194 26
4.329813 3.5338268 1.497527 70
2.9412718 2.393719 -1.0161237 8
4.2853456 3.4875772 0.096442007 7
3.6521924 2.9712336 -1.0869635 19
4.3324747 3.5234191 0.29266271 100
3.8007839 3.0899155 -0.95213693 1
4.3370533 3.5246286 0.4889437 96
3.7287457 3.0291901 -0.76089734 1
4.3371892 3.5234823 0.68612444 57
1.8645623 1.5142088 -0.29492384 81
4.3279204 3.5134456 0.88291621 97
1.9972595 1.6208138 -0.22503611 11
4.3193512 3.5039885 1.0811238 52
1.9840919 1.6089814 -0.13387538 13
4.3219376 3.5035825 1.2844704 40
4.3331156 3.5113945 1.4944212 74
2.9466052 2.3810084 -1.0150883 8
4.2794333 3.4567673 0.096023142 3
3.4341159 2.772964 -1.0190283 4
4.3391433 3.502497 0.29224399 100
3.7809937 3.0519662 -0.94450456 5
4.3338251 3.4969552 0.48720059 98
3.7823472 3.0508821 -0.76965761 1
4.3438935 3.5025768 0.68514949 60
1.8623722 1.5011353 -0.29370514 76
4.3238478 3.483927 0.87947464 94
1.9969798 1.608484 -0.22433887 11
4.3254414 3.4839628 1.0795974 53
1.9896965 1.6020452 -0.13387538 13
4.3204765 3.4774814 1.2804214 41
4.0913115 3.2918508 -0.091660038 2
4.3309035 3.4833803 1.4892448 82
2.9522974 2.3677754 -1.0140531 8
4.2477937 3.4067779 0.095045805 3
3.452898 2.7682729 -1.0217277 3
4.3419895 3.4798379 0.29161596 100
3.8258617 3.0650938 -0.95290023 6
4.3263955 3.4648576 0.48493454 100
3.790422 3.0345266 -0.76903194 3
4.349896 3.4824288 0.68417454 57
1.8660508 1.4933856 -0.29346141 81
4.320559 3.4564717 0.87634599 97
1.9901346 1.591548 -0.22294438 11
4.325913 3.4582794 1.0765444 55
1.9971149 1.5959892 -0.13398007 13
4.3301501 3.4591866 1.2795216 40
4.3188829 3.4489546 1.4809626 86
2.9605451 2.3574548 -1.0140531 8
4.207056 3.3488438 0.093859039 1
3.4599705 2.7531726 -1.0208279 3
4.3447342 3.4571979 0.29098797 100
3.8227105 3.0407202 -0.94946563 5
4.3353443 3.4472556 0.48458594 100
4.2154174 3.3506951 -0.85288078 22
4.3408709 3.4491739 0.68076223 59
1.8699569 1.4853016 -0.29321766 76
4.3279572 3.4376843 0.87540734 100
1.9972372 1.5858318 -0.22311871 12
4.3164306 3.4260695 1.0712018 63
1.9964157 1.584042 -0.13356137 13
4.3315086 3.4355767 1.2763723 36
4.1141915 3.2632098 -0.091660038 2
4.3248415 3.4290557 1.4788921 82
2.9702697 2.3483064 -1.0145707 5
4.2338243 3.3472774 0.094208091 1
3.49966 2.7658491 -1.0298259 1
4.3364029 3.425914 0.28962722 100
3.9673409 3.1332207 -0.98266637 1
4.3379693 3.4246929 0.48354006 100
4.3381386 3.4248264 -0.87540734 12
4.3382597 3.4236934 0.67856854 60
1.8624039 1.469257 -0.29126775 78
4.3306246 3.4152153 0.87353015 100
2.0058904 1.5813167 -0.22346732 11
4.3092661 3.3971522 1.0666224 58
1.9906758 1.5687609 -0.13282867 13
4.3291011 3.4103396 1.2723231 37
4.1255579 3.2488275 -0.091660038 2
4.3307104 3.4091613 1.4768215 86
2.3824332 1.8707546 -0.81165653 36
4.2486296 3.3349466 0.094277903 1
2.3870561 1.8730359 -0.70049757 49
4.335762 3.4008958 0.28878984 100
2.3897157 1.874451 -0.59036303 49
4.338326 3.401684 0.48231989 100
2.3880286 1.8717799 -0.48056671 31
4.3408079 3.4011841 0.67710614 60
1.862833 1.4590743 -0.29053652 81
4.3300781 3.3903346 0.87102723 100
2.0095549 1.5734274 -0.22329301 11
4.318006 3.3796704 1.0658592 56
1.9945669 1.5605712 -0.13272399 13
4.3256302 3.3832004 1.2678242 36
4.1368728 3.2344074 -0.091660038 2
4.3334527 3.3868847 1.4737157 90
2.3752372 1.8517362 -0.80699778 53
4.2192364 3.2881348 0.093370378 1
2.387429 1.8599033 -0.69869798 51
4.3318501 3.3734677 0.28774312 100
2.3915977 1.8624785 -0.5892182 75
4.3375974 3.3767271 0.48092538 100
2.3992233 1.8670739 -0.48150533 70
4.3495212 3.3835721 0.67661864 60
1.858513 1.4452509 -0.28907412 72
4.327847 3.3642905 0.86821139 100
2.0055959 1.5590678 -0.22224714 11
4.3266768 3.3621664 1.0650959 63
2.0047345 1.5572746 -0.13303801 13
4.3250995 3.35852 1.264225 33
4.1481385 3.2199464 -0.091660038 2
4.329987 3.3598933 1.4685394 90
2.3709924 1.835157 -0.80337435 55
4.2401776 3.2807305 0.093579806 1
2.3923657 1.8503655 -0.69824809 58
4.3404388 3.3558838 0.28753379 100
2.3949778 1.8517176 -0.58845496 89
4.3257108 3.3432906 0.4783107 95
2.4026 1.8562715 -0.4808796 82
4.3518796 3.3610876 0.67515624 60
1.8651175 1.439968 -0.28931785 76
4.3161082 3.3310587 0.86351836 94
1.9968306 1.5411013 -0.22067833 11
4.3212891 3.3338506 1.0608981 62
2.0149026 1.5539268 -0.13335203 15
4.3306222 3.3386438 1.2624253 32
4.1593537 3.205446 -0.091660038 2
4.3263845 3.3329694 1.4633629 90
2.3758516 1.8256932 -0.80285674 58
4.2674623 3.27809 0.093928859 3
2.3910816 1.8360695 -0.69599855 61
4.3394513 3.3309841 0.2866964 100
2.3905253 1.8349789 -0.58578366 83
4.329452 3.3221049 0.47743914 100
2.3839867 1.8286378 -0.47587368 76
4.3415308 3.3289664 0.67174387 60
1.8685576 1.4322407 -0.28907412 74
4.3167329 3.3075631 0.86132824 85
2.0053606 1.5365455 -0.22102696 11
4.3095202 3.3008404 1.0551738 56
2.0123858 1.5408126 -0.13282867 15
4.3360605 3.3187678 1.2606257 32
4.170517 3.1909087 -0.091660038 2
4.3257174 3.3084574 1.4592218 90
2.3852823 1.8197315 -0.80389202 63
4.2518468 3.2425597 0.093335465 1
2.3835289 1.8170782 -0.69194949 56
4.3399329 3.3073411 0.28596368 100
2.3984778 1.8278126 -0.58616525 75
4.337852 3.3045585 0.47709054 91
2.3966422 1.8250917 -0.4771252 78
4.3325906 3.298161 0.66857523 59
1.8593278 1.4148908 -0.28688046 78
4.3376861 3.2996492 0.86320543 97
2.0107124 1.5295357 -0.22102696 11
4.3116388 3.2786479 1.0528841 63
2.0098016 1.5277358 -0.13230531 15
4.3352056 3.2941809 1.2570266 34
4.3310843 3.2886651 1.4571513 92
2.3962395 1.814894 -0.8054449 50
4.2344418 3.2059717 0.092707187 1
2.410058 1.8240349 -0.69779819 49
4.3323374 3.2777121 0.28470761 100
2.4095399 1.8229833 -0.58731008 63
4.3382373 3.2809825 0.47587034 93
2.4108775 1.8226706 -0.47868952 62
4.3424926 3.2818215 0.6683315 61
1.8579202 1.4036051 -0.28590551 78
4.3255329 3.2666297 0.85851246 100
2.0239894 1.5285107 -0.22189851 11
