# .PCD v0.7 - Point Cloud Data file format
VERSION 0.7
FIELDS x y z intensity
SIZE 4 4 4 4
TYPE F F F F
COUNT 1 1 1 1
WIDTH 1305
HEIGHT 1
VIEWPOINT 0 0 0 1 0 0 0
POINTS 1305
DATA ascii
0.7311421 -1.4027171 0.082900167 100
0.67059946 -1.2865642 -0.28201571 80
0.72359151 -1.3888226 0.13700882 47
0.70074886 -1.3455523 -0.24028336 13
0.77087206 -1.4808315 0.20498425 56
0.76476175 -1.4703466 0.26249707 55
0.76615292 -1.4736494 0.32284883 41
0.97737151 -1.8815202 0.48949349 86
0.9718098 -1.8724107 0.56526077 90
0.97129709 -1.8770282 -0.5662961 100
0.98181242 -1.8989725 -0.49354258 100
0.66249901 -1.2819208 -0.28048924 82
0.69242251 -1.3409696 -0.2390319 13
0.76478797 -1.4817493 0.20474051 24
0.72721285 -1.4095528 -0.19474722 1
0.78950274 -1.5309442 0.27282172 38
0.73785806 -1.4307988 -0.14084367 1
0.8581537 -1.6647805 0.36406359 32
0.97079778 -1.8849204 0.48949349 86
0.77525759 -1.5059011 -0.029564377 1
0.96526784 -1.8757915 0.56526077 92
0.96297538 -1.8769695 -0.56526077 100
0.96806622 -1.8885149 -0.48994341 100
0.65802014 -1.2842256 -0.28048924 82
0.7374925 -1.439947 0.14154093 1
0.68503684 -1.3381033 -0.23809329 13
0.83195484 -1.6257821 0.2242396 34
0.71867234 -1.4050133 -0.19377227 3
0.83810949 -1.63922 0.29159388 41
0.75644124 -1.4794888 -0.14537577 1
0.95418888 -1.8670588 0.40756804 100
0.74777752 -1.4638046 -0.086144991 1
0.96598488 -1.8917686 0.49039328 84
0.77908701 -1.5264091 -0.029913425 1
0.95695835 -1.875708 0.56422555 88
0.95641786 -1.8803194 -0.56526077 100
0.74859345 -1.4723725 0.028831376 1
0.95881963 -1.8866707 -0.4885937 100
0.75556874 -1.4867337 0.087401055 2
0.65531164 -1.2900153 -0.28125247 84
0.74328619 -1.4638305 0.14363267 1
0.67946774 -1.338725 -0.23778042 13
0.82627469 -1.6286764 0.2242396 51
0.67066836 -1.3225315 -0.18207282 7
0.95685464 -1.8868794 0.33508268 100
0.74947047 -1.4785659 -0.14502715 2
0.94500405 -1.8651242 0.40642318 100
0.74627304 -1.473533 -0.086563677 3
0.95585483 -1.8881745 0.4885937 89
0.78666562 -1.5539619 -0.030402092 1
0.9524774 -1.8823185 0.56526077 88
0.94984841 -1.8836465 -0.56526077 100
0.75631213 -1.4998442 0.029320043 1
0.95255786 -1.8898399 -0.4885937 100
0.7503745 -1.4893621 0.087401055 2
0.64903855 -1.2887881 -0.28048924 82
0.75250536 -1.4948903 0.14642164 1
0.67147183 -1.333913 -0.23652895 16
0.93775409 -1.8637056 0.25616938 80
0.65379179 -1.2999204 -0.17866047 47
0.94138968 -1.8725591 0.331954 100
0.74967235 -1.4918547 -0.14607303 2
0.93793219 -1.8664933 0.40604156 100
0.76110488 -1.5152645 -0.088866465 2
0.94259292 -1.8774015 0.48499447 89
0.78661805 -1.5674218 -0.030611521 2
0.94590127 -1.8856317 0.56526077 99
0.93841219 -1.8764192 -0.56215501 100
0.75107205 -1.5024751 0.029320043 1
0.94769734 -1.8966398 -0.48949349 89
0.75435871 -1.5097085 0.088447772 1
0.63949794 -1.280395 -0.27819952 84
0.75466359 -1.5116382 0.14781614 1
0.65358126 -1.3097359 -0.23183592 53
0.94364756 -1.8918369 0.25958171 90
0.64659297 -1.296865 -0.17792925 100
0.93341184 -1.8721346 0.33132821 100
0.75005317 -1.5050318 -0.1471189 2
0.93578809 -1.8785424 0.40794963 100
0.76471329 -1.5357908 -0.089913182 2
0.93777037 -1.8841695 0.48589426 86
0.78141588 -1.5700217 -0.030611521 1
0.93620121 -1.8818398 0.56319028 90
0.9249922 -1.8658367 -0.55801392 100
0.74786204 -1.5085407 0.029389855 1
0.94226778 -1.9015183 -0.48994341 34
0.75794905 -1.53023 0.089494489 1
0.63502461 -1.2826195 -0.27819952 82
0.77412605 -1.5642624 0.15269686 2
0.64835817 -1.3101255 -0.23152302 100
0.94000924 -1.9002939 0.26031294 87
0.64668822 -1.3078994 -0.17914794 100
0.92162007 -1.8647562 0.32945102 100
0.73597062 -1.4897777 -0.14537577 1
0.92694503 -1.8763547 0.40680483 100
0.75784773 -1.5347365 -0.089703836 2
0.93151706 -1.8872688 0.48589426 89
0.75646627 -1.5332868 -0.029843615 1
0.92449993 -1.8747004 0.5600844 96
0.9212265 -1.8763112 -0.5600844 100
0.74708635 -1.5223016 0.029599281 1
0.92690283 -1.8895392 -0.48589426 100
0.7573455 -1.543888 0.090122528 1
0.63182366 -1.2885739 -0.27896276 84
0.78214347 -1.5958483 0.15548584 4
0.63874859 -1.3038479 -0.22995868 113
0.92800838 -1.8951377 0.25909427 90
0.63991547 -1.3068072 -0.17866047 118
0.91792679 -1.8753781 0.33070248 100
0.73900074 -1.5104893 -0.1471189 1
0.91078055 -1.862424 0.40298861 100
0.75694346 -1.5485325 -0.090331867 1
0.92426383 -1.8908315 0.48589426 89
0.76286322 -1.561334 -0.030332282 1
0.91729504 -1.8782363 0.5600844 94
0.91415364 -1.8776188 -0.5595668 100
0.74203402 -1.5247707 0.029599281 1
0.9163698 -1.8838406 -0.48364475 100
0.7662003 -1.5751275 0.091797277 1
0.63012254 -1.2959589 -0.28010762 86
0.77945977 -1.6038091 0.15600878 10
0.6361478 -1.3095126 -0.23058443 141
0.91478193 -1.883919 0.25714433 92
0.62777454 -1.2928506 -0.17646682 129
0.90911508 -1.8730805 0.32976389 100
0.75138098 -1.5487831 -0.15060511 1
0.90374285 -1.8636676 0.40260699 98
0.76922709 -1.5869792 -0.092425302 1
0.91118848 -1.8798573 0.48229504 91
0.80825168 -1.6682323 -0.032356761 1
0.91274554 -1.8847455 0.56111974 94
0.90792263 -1.8806398 -0.5595668 22
0.74914062 -1.5524366 0.03008795 1
0.91011763 -1.886869 -0.48364475 100
0.75375813 -1.5633998 0.090959899 1
0.62155837 -1.289199 -0.27819952 90
0.80960053 -1.6799737 0.16315554 9
0.62494361 -1.2973776 -0.22808148 140
0.90852952 -1.8869421 0.25714433 92
0.62325794 -1.2950341 -0.17646682 141
0.90085876 -1.8726821 0.32913816 100
0.7496956 -1.5584481 -0.15130237 1
0.89755768 -1.8666544 0.40260699 100
0.75357801 -1.5679199 -0.091169246 1
0.90124559 -1.8760004 0.48049545 91
0.76779908 -1.5989379 -0.030960569 1
0.90616089 -1.88792 0.56111974 92
0.89885068 -1.8785698 -0.55801392 76
0.75061941 -1.569474 0.030367188 1
0.90352559 -1.8900343 -0.48364475 100
0.74312979 -1.5552088 0.090331867 1
0.6136688 -1.2842752 -0.27667305 90
0.74619925 -1.5623333 0.15147668 9
0.62551731 -1.3102471 -0.22995868 153
0.90193748 -1.890102 0.25714433 95
0.61702436 -1.2936183 -0.17597936 133
0.89091569 -1.8686831 0.3278867 100
0.76139951 -1.5970247 -0.1547886 1
0.89525938 -1.8786373 0.40451509 100
0.76699609 -1.6102099 -0.093472026 1
0.89469159 -1.8791349 0.48049545 89
0.74330831 -1.561884 -0.030192664 1
0.89458609 -1.8806044 0.55801392 99
0.88897693 -1.8747135 -0.55594331 100
0.75370091 -1.5901548 0.030716237 1
0.89859128 -1.896699 -0.48454455 100
0.75308323 -1.5902848 0.092215963 1
0.60834199 -1.2846351 -0.27629143 86
0.61756057 -1.30528 -0.22870721 146
0.89788055 -1.8986226 0.25787556 95
0.61589837 -1.302943 -0.1769543 141
0.8801682 -1.8628514 0.32632235 100
0.75554097 -1.5998046 -0.1547886 1
0.88450408 -1.8728751 0.40260699 100
0.73067725 -1.5478567 -0.089703836 1
0.88979006 -1.8857713 0.48139524 91
0.74808758 -1.5861728 -0.030611521 1
0.88636857 -1.8802209 0.55697864 99
0.87881464 -1.8709651 -0.55387276 100
0.7260415 -1.5457165 0.029808709 2
0.88865256 -1.892768 -0.48274496 100
0.74073923 -1.5784395 0.091378585 1
0.60613066 -1.2921884 -0.27743632 90
0.73161745 -1.5604173 0.15077944 63
0.61025763 -1.3021687 -0.22776861 100
0.88619298 -1.8909602 0.25641313 92
0.61303067 -1.3086803 -0.17744178 129
0.87784833 -1.8748572 0.3278867 100
0.74995214 -1.6024323 -0.1547886 1
0.87513822 -1.8707691 0.40146214 100
0.71992332 -1.5396688 -0.089075804 1
0.8803969 -1.8837235 0.48004553 95
0.73069274 -1.563412 -0.030122854 1
0.87898237 -1.8815528 0.55646098 100
0.8739087 -1.8775241 -0.55490804 100
0.73724174 -1.5846287 0.030506806 1
0.87513542 -1.8818763 -0.47914574 100
0.74196255 -1.5955037 0.092215963 1
0.60161638 -1.2942964 -0.27743632 93
0.76226419 -1.640658 0.15827483 13
0.60903668 -1.3114575 -0.22902009 100
0.87089831 -1.8761899 0.25397575 95
0.60405254 -1.3019148 -0.17622308 115
0.87046701 -1.8761179 0.32757381 100
0.71082473 -1.532741 -0.14781614 1
0.86530006 -1.8666881 0.39993569 100
0.6960721 -1.5023043 -0.086773023 1
0.87299722 -1.885017 0.47959566 97
0.71682733 -1.5478077 -0.029773805 1
0.8732208 -1.886363 0.55697864 99
0.86654055 -1.8788091 -0.55439043 100
0.74203289 -1.6088551 0.030925665 1
0.86888999 -1.884768 -0.47914574 100
0.73973185 -1.6053398 0.092634656 4
0.59545207 -1.292822 -0.27667305 90
0.60468429 -1.31347 -0.22902009 100
0.86799103 -1.8862809 0.25495067 98
0.59558451 -1.2948934 -0.17500439 100
0.86226279 -1.8755556 0.32694808 100
0.69715065 -1.517109 -0.14607303 2
0.86074448 -1.8731148 0.40069893 100
0.70442462 -1.5336437 -0.088447772 1
0.86348927 -1.8808174 0.47779605 100
0.68973547 -1.5030462 -0.02886628 1
0.86663079 -1.8893996 0.55697864 99
0.85468233 -1.8693738 -0.55076694 100
0.73142564 -1.600523 0.030716237 2
0.8639251 -1.8913345 -0.48004553 100
0.73412383 -1.6079121 0.092634656 6
0.58463842 -1.2805022 -0.2736201 97
0.86274838 -1.8905047 0.18180689 100
0.60747397 -1.3317478 -0.23183592 39
0.86304867 -1.8929118 0.25543818 92
0.59929281 -1.3150281 -0.17744178 100
0.84997839 -1.8659705 0.32475799 100
0.68963814 -1.5139731 -0.14555009 4
0.85582805 -1.8796815 0.40146214 100
0.69741243 -1.5324575 -0.088238433 1
0.85530466 -1.8802726 0.47689623 97
0.69772756 -1.5345706 -0.029424759 1
0.85683316 -1.8853779 0.55490804 96
0.84815198 -1.8723457 -0.55076694 100
0.73738164 -1.6285697 0.031204903 2
0.85892451 -1.8978895 -0.48094535 100
0.58016521 -1.2825351 -0.2736201 90
0.84629375 -1.8717194 0.17971513 100
0.62722719 -1.3878624 -0.24122196 12
0.85725325 -1.8977219 0.2556819 100
0.59878337 -1.3261582 -0.17866047 64
0.84183466 -1.865325 0.32413223 100
0.67861223 -1.5036591 -0.14432991 5
0.84361058 -1.8701303 0.39879084 100
0.67892367 -1.5057508 -0.086563677 1
0.85033762 -1.8867998 0.47779605 99
0.70222217 -1.5588757 -0.029843615 1
0.84707397 -1.8813114 0.55283749 99
0.840029 -1.8717698 -0.54973167 100
0.72841853 -1.6238356 0.031065283 1
0.84910548 -1.8937635 -0.47914574 100
0.72614783 -1.6202884 0.093053341 16
0.57729048 -1.2881358 -0.27438337 93
0.83975524 -1.874662 0.17971513 100
0.61753559 -1.3792259 -0.23934476 12
0.84494722 -1.8880192 0.25397575 98
0.83531851 -1.8682522 0.32413223 100
0.67335951 -1.5060188 -0.14432991 6
0.83787835 -1.8748561 0.39917243 100
0.6736635 -1.5081115 -0.086563677 1
0.84533542 -1.8933153 0.47869584 100
0.67069834 -1.502882 -0.02872666 1
0.83971494 -1.8824923 0.55231988 100
0.83349019 -1.8746907 -0.54973167 100
0.71462506 -1.6080946 0.030716237 2
0.83774334 -1.8860301 -0.47644633 100
0.71562499 -1.6118605 0.092425302 39
0.57597721 -1.2973205 -0.27590984 93
0.8332063 -1.877582 0.17971513 100
0.61592096 -1.3885962 -0.24059623 13
0.83513367 -1.8836981 0.2530008 98
0.67797738 -1.5299426 -0.20547174 1
0.8335917 -1.8819934 0.32600945 100
0.67132562 -1.5156467 -0.14502715 11
0.82576561 -1.865203 0.39650109 100
0.67971027 -1.5360237 -0.088029087 1
0.83320326 -1.8837794 0.47554654 89
0.67515105 -1.5271615 -0.029145518 1
0.8331387 -1.8854122 0.55231988 100
0.82694137 -1.8775886 -0.54973167 100
0.70739597 -1.6069188 0.030646425 25
0.83115476 -1.8889428 -0.47644633 100
0.56749326 -1.2903373 -0.27400175 86
0.82744908 -1.8823031 0.17988946 100
0.61504334 -1.39978 -0.24216059 15
0.82775497 -1.8847843 0.25275704 100
0.69337815 -1.5795593 -0.21180893 1
0.82225531 -1.8740382 0.32413223 100
0.66443008 -1.5143318 -0.14467853 11
0.82476896 -1.8806598 0.39917243 100
0.6599111 -1.5054609 -0.086144991 1
0.82193041 -1.8759665 0.4728471 95
0.66660738 -1.5221819 -0.0290059 1
0.82810146 -1.8918482 0.5533551 100
0.81883711 -1.8769227 -0.5486964 100
0.71137416 -1.6313742 0.031065283 12
0.82611352 -1.8954055 -0.47734615 100
0.7585972 -1.7413287 0.099542998 1
0.56063336 -1.2869109 -0.27285689 90
0.8161009 -1.8742194 0.17884357 100
0.61015362 -1.4019184 -0.24216059 15
0.82196259 -1.8894826 0.2530008 100
0.68786019 -1.5819701 -0.21180893 1
0.81177157 -1.8678387 0.32256791 100
0.65675741 -1.5111603 -0.14415559 14
0.81663501 -1.879926 0.39840919 100
0.65783393 -1.5150832 -0.086563677 1
0.814601 -1.8770368 0.47239724 100
0.65810692 -1.5171613 -0.02886628 1
0.81841904 -1.8876377 0.55128461 100
0.80768281 -1.8691291 -0.54559058 100
0.81794715 -1.8946995 -0.47644633 100
0.7620098 -1.7659719 0.10079906 1
0.55613786 -1.28886 -0.27285689 90
0.8048197 -1.86608 0.17779772 100
0.60603809 -1.4058537 -0.24247345 15
0.81693321 -1.8959862 0.25348827 100
0.68233407 -1.5843614 -0.21180893 1
0.80680883 -1.8742895 0.32319364 100
0.64753979 -1.5042932 -0.14328404 11
0.80696416 -1.8755517 0.39688274 100
0.647807 -1.5063616 -0.085935652 1
0.80650496 -1.8762881 0.47149745 99
0.6496495 -1.5121 -0.02872666 1
0.80725104 -1.8798325 0.54817873 100
0.80419385 -1.8790414 -0.54766113 100
0.69996768 -1.6363008 0.031065283 2
0.80979639 -1.8939594 -0.47554654 100
0.75113142 -1.7576016 0.10017103 1
0.55317849 -1.2944039 -0.2736201 93
0.79830092 -1.868878 0.17779772 100
0.59802455 -1.4006937 -0.24122196 15
0.80563515 -1.8878716 0.25202581 100
0.67679918 -1.5867337 -0.21180893 1
0.8018111 -1.8807288 0.3238194 100
0.64384776 -1.5102099 -0.14363267 5
0.79733366 -1.8711324 0.39535624 100
0.65350181 -1.5343391 -0.087401055 1
0.80300397 -1.8862638 0.47329703 97
0.65063095 -1.529079 -0.0290059 1
0.80068439 -1.8826387 0.54817873 100
0.79612184 -1.8782794 -0.54662579 100
0.70049208 -1.6534646 0.031344522 2
0.7986213 -1.8860075 -0.4728471 100
0.75308692 -1.7784746 0.10121775 1
0.54789162 -1.2945191 -0.27323848 86
0.79487735 -1.8789929 0.17849496 100
0.59159279 -1.3991339 -0.24059623 16
0.79440367 -1.8797014 0.25056338 95
0.67125648 -1.5890864 -0.21180893 1
0.79480118 -1.8815576 0.3235065 100
0.6432218 -1.5234612 -0.14467853 1
0.79232424 -1.8775219 0.39611951 100
0.63417017 -1.5034864 -0.085516959 1
0.7918722 -1.8782814 0.47059759 100
0.6471104 -1.5349135 -0.02907571 1
0.7959373 -1.8888443 0.54921407 100
0.78956079 -1.881047 -0.54662579 100
0.70893639 -1.6889677 0.031972811 2
0.79236257 -1.8886454 -0.4728471 100
0.76077658 -1.8142463 0.10310185 1
0.54261065 -1.2946131 -0.27285689 100
0.78831381 -1.8817559 0.17849496 100
0.58847666 -1.4047319 -0.24122196 16
0.78893262 -1.8841563 0.25080714 100
0.64299178 -1.536368 -0.20449677 1
0.7851792 -1.8770312 0.32225505 100
0.63175172 -1.5109916 -0.14328404 1
0.78609371 -1.880139 0.39611951 100
0.63380152 -1.516638 -0.086144991 1
0.78413701 -1.8773006 0.4696978 94
0.64174873 -1.5371629 -0.02907571 1
0.79082716 -1.8951765 0.55024934 100
0.78035158 -1.8765202 -0.54455531 100
0.71685153 -1.7246697 0.032601096 4
0.78651273 -1.8931994 -0.47329703 100
0.75443918 -1.8168907 0.10310185 2
0.53153867 -1.2800869 -0.26942232 82
0.77672309 -1.8714784 0.17727478 100
0.58584011 -1.4122514 -0.24216059 16
0.78311145 -1.8887327 0.25105089 100
0.63458496 -1.5312678 -0.20352182 1
0.77559847 -1.8724604 0.32100356 100
0.62521267 -1.5093969 -0.14293543 1
0.779526 -1.8828716 0.39611951 100
0.63614035 -1.5372962 -0.087191716 1
0.77460027 -1.8728232 0.46789822 99
0.63637906 -1.5393937 -0.02907571 1
0.78051835 -1.8889985 0.54766113 100
0.76938337 -1.8685143 -0.54144943 100
0.71995956 -1.749352 0.033019952 5
0.77989942 -1.8959335 -0.47329703 95
0.75872493 -1.8453743 0.10456725 2
0.52855998 -1.2855661 -0.27018553 82
0.76942825 -1.8723354 0.17710046 100
0.57940596 -1.4106332 -0.24153483 16
0.77877504 -1.8969636 0.25178206 100
0.64280051 -1.5665303 -0.20790912 1
0.76905781 -1.8751563 0.32100356 100
0.61691612 -1.5041965 -0.14223817 4
0.77145934 -1.8819479 0.39535624 100
0.62319797 -1.5210258 -0.086144991 3
0.77101237 -1.8827291 0.4696978 100
0.61282152 -1.4971895 -0.028237993 2
0.76953071 -1.8809835 0.54455531 100
0.76285613 -1.8711888 -0.54144943 100
0.76739639 -1.8842058 -0.4696978 82
0.52554983 -1.2910399 -0.2709488 76
0.76438951 -1.8787006 0.17744908 100
0.57150179 -1.4053277 -0.24028336 16
0.7691589 -1.8923146 0.25080714 100
0.64928287 -1.5981904 -0.21180893 1
0.76432234 -1.8813566 0.32162929 100
0.62215573 -1.532185 -0.14467853 1
0.76193243 -1.8773528 0.39382979 100
0.62088799 -1.5305949 -0.086563677 1
0.76589984 -1.8890209 0.47059759 97
0.76256335 -1.8817341 0.54403764 100
0.75776613 -1.877423 -0.54248476 100
0.75219423 -1.8636183 0.035079334 75
0.75458217 -1.8704752 -0.46564871 77
0.76183134 -1.8893955 0.10676537 100
0.5210402 -1.2928666 -0.2709488 76
0.75708258 -1.8795096 0.17727478 100
0.56905258 -1.4127121 -0.24122196 16
0.75472432 -1.8745989 0.248126 100
0.63953316 -1.5892854 -0.21034651 1
0.75627619 -1.8803476 0.32100356 100
0.62274879 -1.5491362 -0.14607303 2
0.75423813 -1.8762261 0.39306656 100
0.60985196 -1.5178195 -0.085726306 1
0.7552743 -1.8807001 0.46789822 97
0.7567094 -1.8861779 0.54455531 100
0.75153613 -1.8799256 -0.54248476 100
0.74791002 -1.8718036 0.035184052 87
0.71986103 -1.8025173 -0.4481025 71
0.75111729 -1.8807824 0.10613733 100
0.51529431 -1.2909406 -0.27018553 75
0.75010735 -1.8801593 0.17710046 100
0.5648495 -1.4165248 -0.24153483 16
0.75111616 -1.884598 0.24910097 100
0.63838929 -1.602573 -0.21180893 1
0.74930561 -1.8810104 0.32069072 100
0.62497824 -1.5697035 -0.14781614 1
0.74768442 -1.8788474 0.39306656 100
0.60897887 -1.531074 -0.086354338 1
0.74294549 -1.868838 0.46429899 100
0.68480498 -1.7225887 -0.032356761 1
0.75259042 -1.8940628 0.54610825 100
0.7435478 -1.8789448 -0.54144943 100
0.74390662 -1.8798515 0.035288766 90
0.63575429 -1.607371 -0.39906317 56
0.7467503 -1.8889649 0.10645135 100
0.50501335 -1.2781243 -0.26713261 75
0.74353993 -1.882766 0.17710046 100
0.5630514 -1.425739 -0.24278632 16
0.74704885 -1.8926179 0.24983218 100
0.62432939 -1.5825223 -0.20888408 2
0.73766285 -1.8707505 0.31850061 100
0.61218995 -1.5533392 -0.14607303 1
0.74288952 -1.8849696 0.39382979 100
0.60682625 -1.5405183 -0.086773023 1
0.73817182 -1.874918 0.46519879 97
0.67878801 -1.7249686 -0.032356761 1
0.74526739 -1.8948804 0.54559058 100
0.73134768 -1.8671386 -0.53730839 100
0.73409575 -1.8751174 0.03514915 90
0.56381935 -1.4409178 -0.35722226 76
0.73982185 -1.8916892 0.10645135 100
0.50054878 -1.2798793 -0.26713261 69
0.73188585 -1.8723606 0.17588028 100
0.55422783 -1.4185935 -0.24122196 16
0.73938495 -1.8934941 0.24958843 100
0.60697734 -1.5552119 -0.20498425 5
0.73295486 -1.8789626 0.3194392 100
0.60676402 -1.5554667 -0.14607303 1
0.733123 -1.880363 0.39230329 100
0.61132842 -1.5687855 -0.088238433 1
0.73129487 -1.8776109 0.46519879 100
0.72991139 -1.8759947 0.53937894 100
0.72622252 -1.8732827 -0.53834367 100
0.72321057 -1.8664806 0.034939718 93
0.50530034 -1.3047681 -0.32302973 42
0.73393524 -1.8961227 0.10655601 100
0.49891299 -1.2889425 -0.26865909 69
0.72606444 -1.8767619 0.17605458 100
0.54499805 -1.409465 -0.23934476 16
0.72990876 -1.8886571 0.24861349 100
0.61012822 -1.5795423 -0.20790912 5
0.72639155 -1.8815097 0.3194392 100
0.59128457 -1.5315536 -0.14363267 1
0.72372758 -1.8755842 0.39077684 100
0.602974 -1.5634559 -0.087819748 1
0.72754008 -1.8874253 0.46699843 100
0.65204865 -1.6924618 -0.031658668 1
0.72613543 -1.8857423 0.54144943 100
0.72106278 -1.8794135 -0.53937894 100
0.71812308 -1.872728 0.035009526 96
0.50632215 -1.3210812 -0.32662892 77
0.72445405 -1.8912128 0.10613733 100
0.4930059 -1.2870094 -0.26789585 61
0.71950907 -1.879285 0.17605458 100
0.54431081 -1.4224283 -0.24122196 16
0.72118402 -1.8856312 0.24788228 100
0.60744601 -1.5890793 -0.20888408 6
0.71981961 -1.8840338 0.3194392 100
0.59589016 -1.5596647 -0.14607303 1
0.71437484 -1.8707627 0.3892504 100
0.59751278 -1.565551 -0.087819748 1
0.71816909 -1.8826704 0.46519879 97
0.64613706 -1.6947275 -0.031658668 1
0.71748489 -1.8828499 0.53989661 100
0.71449816 -1.881919 -0.53937894 100
0.71158165 -1.8752234 0.035009526 93
0.48650441 -1.2827545 -0.3167311 53
0.71501642 -1.8862596 0.10571864 100
0.48572698 -1.2813792 -0.26636937 60
0.71365058 -1.8836483 0.17622891 100
0.53934205 -1.4243196 -0.24122196 16
0.71389496 -1.8862803 0.24763852 100
0.60962093 -1.6116136 -0.2115652 13
0.71044415 -1.8791441 0.31818774 100
0.58057791 -1.5356443 -0.14363267 1
0.70922846 -1.876918 0.39001361 100
0.5835765 -1.5452058 -0.086563677 1
0.70746368 -1.8742268 0.46249935 97
0.6543346 -1.734392 -0.032356761 1
0.71295279 -1.8907658 0.54144943 100
0.70520735 -1.8771677 -0.53730839 100
0.70643729 -1.8814398 0.035079334 90
0.48681656 -1.2972164 -0.3198804 67
0.70842797 -1.8887439 0.10571864 100
0.47849339 -1.275714 -0.2648429 57
0.70357406 -1.8767997 0.17535736 100
0.53436714 -1.4261936 -0.24122196 19
0.7066099 -1.8869021 0.2473948 99
0.60886276 -1.6267457 -0.21327138 15
0.70111203 -1.8742118 0.31693625 100
0.57242179 -1.5301973 -0.14293543 1
0.7040472 -1.8830602 0.39077684 100
0.57538259 -1.53975 -0.086144991 1
0.7009173 -1.8766848 0.46249935 94
0.62030327 -1.6617285 -0.030960569 2
0.70499784 -1.8896229 0.54041415 100
0.69595784 -1.8723748 -0.53523779 100
0.69568747 -1.8726473 0.034869909 99
0.4795723 -1.2916002 -0.31808078 63
0.70183045 -1.8912053 0.10571864 100
0.47335419 -1.2755359 -0.26446128 53
0.69493991 -1.8736402 0.17483442 100
0.52801239 -1.4243457 -0.24059623 18
0.7027778 -1.8968024 0.24836974 100
0.60662735 -1.6381691 -0.21449007 13
0.6938799 -1.8747952 0.31662342 100
0.57399243 -1.5508711 -0.14467853 1
0.69474554 -1.8781409 0.3892504 100
0.57554525 -1.5567356 -0.086982369 1
0.69638824 -1.8846039 0.46384907 95
0.64221054 -1.7389178 -0.032356761 1
0.69037014 -1.8703244 0.53420252 100
0.68941802 -1.8747927 -0.53523779 100
0.68638706 -1.8675565 0.034730289 96
0.4737168 -1.2896081 -0.31718099 75
0.69555503 -1.8935224 0.10571864 100
0.47160545 -1.2845523 -0.26598775 52
0.68908179 -1.8779252 0.17500873 100
0.51827604 -1.413198 -0.23840615 16
0.69137055 -1.8861972 0.24666359 100
0.6070509 -1.6570522 -0.21668372 21
0.68901795 -1.8807957 0.31724915 100
0.56446517 -1.5416398 -0.14363267 1
0.68278772 -1.8658051 0.38619745 100
0.55981696 -1.5305992 -0.085412286 7
0.68913662 -1.8851929 0.4633992 99
0.68548995 -1.8762325 0.53523779 100
0.68154871 -1.873557 -0.53420252 100
0.68019021 -1.8698224 0.034730289 99
0.46677431 -1.283846 -0.31538138 79
0.68757713 -1.8921844 0.1055093 100
0.46845886 -1.2898816 -0.26675099 50
0.68388212 -1.8840644 0.17535736 100
0.51426095 -1.4167658 -0.23871902 6
0.68037277 -1.875417 0.24495739 100
0.60155255 -1.6590561 -0.21668372 27
0.68312156 -1.8850465 0.31756201 100
0.56179452 -1.5510939 -0.14432991 1
0.67927116 -1.8754426 0.38772389 100
0.55269867 -1.5268133 -0.085098274 1
0.68022931 -1.8801378 0.46159956 99
0.67893648 -1.8786138 0.53523779 100
0.67664093 -1.8794419 -0.53523779 100
0.67501318 -1.8759485 0.034800097 96
0.46031156 -1.2799662 -0.31403166 83
0.67691481 -1.8832959 0.10488127 100
0.46152291 -1.2840377 -0.26522452 47
0.67695695 -1.8844469 0.17518303 100
0.50864482 -1.416693 -0.23840615 6
0.67717427 -1.8871226 0.24617608 100
0.58838624 -1.6405916 -0.21400258 25
0.67387134 -1.8799813 0.31631052 100
0.55234486 -1.5417916 -0.14328404 1
0.67272025 -1.8778024 0.38772389 100
0.54197979 -1.5136904 -0.084260903 1
0.67103606 -1.8751616 0.45979998 94
0.60002667 -1.6776546 -0.031100187 1
0.67237461 -1.8809724 0.53523779 100
0.66845244 -1.8782693 -0.53420252 100
0.6691314 -1.8801771 0.034835003 100
0.45975938 -1.2925816 -0.3167311 97
0.67033648 -1.8856473 0.10488127 100
0.45089796 -1.269071 -0.26178995 45
0.66737872 -1.8794055 0.17448579 100
0.50477034 -1.4222711 -0.2390319 4
0.671911 -1.8932166 0.24666359 100
0.58597392 -1.6519897 -0.21522127 26
0.66466469 -1.8748748 0.31505907 100
0.54829055 -1.5474662 -0.14363267 2
0.66714412 -1.8839567 0.38848713 100
0.54975533 -1.5533229 -0.086354338 3
0.66545838 -1.8812828 0.46069977 97
0.66451693 -1.8796653 0.53420252 100
0.65804344 -1.8696575 -0.5310967 100
0.66024506 -1.8769579 0.034730289 96
0.4550187 -1.294258 -0.3167311 92
0.66606903 -1.8956288 0.10529996 100
0.44646513 -1.2706373 -0.26178995 45
0.65817368 -1.8742044 0.17378855 100
0.50111115 -1.4277521 -0.23965763 4
0.66628164 -1.899413 0.24715105 100
0.57860166 -1.6503799 -0.21473379 26
0.65844184 -1.8791624 0.3153719 100
0.54156798 -1.54561 -0.14328404 2
0.65796834 -1.8788623 0.38696066 100
0.54169089 -1.5476919 -0.085935652 3
0.65888715 -1.8835943 0.46069977 100
0.65252542 -1.8674982 0.53006142 100
0.65024334 -1.8682941 -0.53006142 100
0.64974725 -1.8679188 0.034520861 99
0.44537866 -1.281113 -0.31313187 100
0.65551502 -1.8866223 0.10467192 100
0.44267154 -1.2740425 -0.26217157 46
0.65097398 -1.874608 0.17361423 100
0.49223801 -1.4182956 -0.23778042 6
0.65704536 -1.894225 0.24617608 100
0.5754382 -1.6598917 -0.21570876 26
0.65381813 -1.8870491 0.31631052 100
0.53095108 -1.5324303 -0.14188954 2
0.6475513 -1.8700165 0.38467094 100
0.53105938 -1.534474 -0.085098274 1
0.6523084 -1.8858827 0.46069977 99
0.64852607 -1.8770683 0.53213197 100
0.64623219 -1.8778591 -0.53213197 100
0.64452374 -1.8739576 0.034590669 99
0.43837023 -1.2752882 -0.31133226 97
0.65022343 -1.8926771 0.10488127 100
0.43885943 -1.2774366 -0.26255319 45
0.64701444 -1.8844066 0.17431147 100
0.48856664 -1.4237419 -0.23840615 3
0.64527738 -1.8814853 0.2442262 99
0.56577843 -1.6506234 -0.21424633 26
0.64722729 -1.8893197 0.31631052 100
0.5307644 -1.5493531 -0.14328404 2
0.63974786 -1.8685508 0.38390771 100
0.52569979 -1.5363184 -0.085098274 1
0.64446044 -1.8844604 0.45979998 97
0.6419698 -1.8793206 0.53213197 100
0.64091784 -1.8837616 -0.5331673 100
0.63862216 -1.8780892 0.034625575 100
0.43391609 -1.2768106 -0.31133226 100
0.63847399 -1.8798058 0.10404389 100
0.43313485 -1.2752429 -0.26178995 45
0.64107305 -1.8885403 0.17448579 100
0.48740169 -1.4366627 -0.24028336 3
0.63998067 -1.8874863 0.24471366 100
0.55746496 -1.6450679 -0.21327138 30
0.63745987 -1.8822126 0.31474617 100
0.52918744 -1.5625192 -0.14432991 2
0.63322169 -1.8707725 0.38390771 100
0.50881368 -1.5040892 -0.083214179 1
0.63538164 -1.8793142 0.45800033 99
0.63787854 -1.8888714 0.53420252 100
0.63064337 -1.8750008 -0.53006142 100
0.63142556 -1.8784115 0.034590669 100
0.4306975 -1.282012 -0.31223205 100
0.63223672 -1.8819127 0.10404389 100
0.42680621 -1.2711636 -0.26064509 46
0.63130784 -1.8813221 0.17361423 100
0.48866487 -1.4570839 -0.24341206 3
0.63464981 -1.893473 0.24520114 100
0.55137569 -1.6450253 -0.21302763 33
0.62807786 -1.8749506 0.31318185 100
0.52246505 -1.5605781 -0.14398128 2
0.62793344 -1.876695 0.38467094 100
0.51496142 -1.539951 -0.085098274 1
0.62914598 -1.8814108 0.45800033 100
0.56856412 -1.7012321 -0.031309616 1
0.62793905 -1.8799822 0.5310967 100
0.62266952 -1.8729048 0.034451049 100
0.42951635 -1.2926799 -0.31448159 100
0.62788212 -1.889685 0.10435791 100
0.42073229 -1.2669822 -0.25950024 45
0.62255538 -1.8758415 0.17291699 100
0.47263622 -1.4249476 -0.23778042 3
0.63086593 -1.9031041 0.24617608 98
0.54904079 -1.656266 -0.21424633 35
0.62247777 -1.8788985 0.31349471 100
0.50476193 -1.524474 -0.14049506 2
0.61923969 -1.8713115 0.3831445 100
0.50608933 -1.5302727 -0.084470242 1
0.62167996 -1.8797865 0.45710054 100
0.61927748 -1.8747168 0.52902615 100
0.61336422 -1.8644614 -0.52592033 73
0.61270803 -1.8635615 0.034241624 100
0.42157719 -1.282989 -0.31178215 100
0.62190515 -1.8937627 0.10446258 100
0.41897863 -1.2758315 -0.26102671 45
0.61757392 -1.8816817 0.17326561 100
0.47283378 -1.441523 -0.24028336 15
0.61960459 -1.8900954 0.2442262 100
0.54696399 -1.6694909 -0.21570876 37
0.61714494 -1.8848144 0.31412044 100
0.50439477 -1.5413753 -0.14188954 5
0.61058837 -1.8658911 0.38161799 100
0.4923203 -1.5053662 -0.083004832 1
0.61753619 -1.8893546 0.45890018 100
0.57559907 -1.7620884 -0.032356761 1
0.61272967 -1.8768671 0.52902615 100
0.61130238 -1.8813955 -0.53006142 100
0.60867077 -1.8732961 0.034381241 100
0.41288304 -1.2714785 -0.30863285 100
0.61405802 -1.8921227 0.10425323 100
0.41551107 -1.2810936 -0.26178995 45
0.61190182 -1.8877232 0.17361423 100
0.46876493 -1.4470048 -0.2409091 16
0.61239159 -1.890358 0.24398245 100
0.53868747 -1.6638359 -0.21473379 31
0.61116993 -1.8888364 0.31443331 100
0.497172 -1.5374393 -0.14136662 12
0.60253787 -1.8643801 0.38085476 100
0.47697768 -1.476751 -0.081330083 1
0.60701531 -1.880478 0.45620075 99
0.56944448 -1.764087 -0.032356761 1
0.60617459 -1.8789943 0.52902615 100
0.6047315 -1.8835177 -0.53006142 100
0.60180086 -1.8755144 0.034381241 100
0.4111954 -1.2822616 -0.31088236 100
0.60407114 -1.8848507 0.10372987 100
0.40983841 -1.2787968 -0.26102671 45
0.60409313 -1.8860527 0.17326561 100
0.46431303 -1.4505136 -0.24122196 76
0.604249 -1.8888085 0.24349497 100
0.52956289 -1.656345 -0.2135151 12
0.60123676 -1.8816556 0.31286895 100
0.48695111 -1.5239825 -0.13997212 5
0.5960263 -1.8664721 0.38085476 100
0.43477872 -1.3623416 -0.074945092 12
0.59926343 -1.8788723 0.45530096 100
0.56297517 -1.7661622 -0.032356761 1
0.5992834 -1.8812037 0.52902615 100
0.59464824 -1.8745686 -0.5269556 100
0.59525037 -1.8776037 0.034381241 100
0.4055399 -1.2799735 -0.30998254 100
0.59869361 -1.8907561 0.10393922 100
0.40240866 -1.2708615 -0.25911862 46
0.59630388 -1.8843508 0.17291699 100
0.59825027 -1.8927989 0.2437387 100
0.52258199 -1.6543976 -0.21302763 13
0.59109706 -1.8724403 0.31099173 100
0.47143221 -1.4933735 -0.13700882 5
0.59305155 -1.8797752 0.3831445 100
0.43302354 -1.3733751 -0.075468451 21
0.59387237 -1.88467 0.45620075 97
0.52677387 -1.6727488 -0.030611521 1
0.59155345 -1.8795986 0.52799088 100
0.58579034 -1.8692592 -0.52488506 100
0.58630204 -1.8720369 0.034241624 100
0.40456226 -1.2925401 -0.31268197 100
0.59063095 -1.8870128 0.10362521 100
0.39797017 -1.2722584 -0.25911862 46
0.58615565 -1.8750111 0.17187113 100
0.45005172 -1.4405214 -0.2390319 153
0.5934146 -1.9005604 0.24446991 100
0.51117671 -1.6371726 -0.21059024 17
0.58488446 -1.8743901 0.31099173 100
0.44782862 -1.4360466 -0.13160518 5
0.58531815 -1.8780851 0.38238126 100
0.43476033 -1.3958542 -0.076619849 19
0.58646065 -1.8829077 0.45530096 97
0.47367778 -1.5217398 -0.027819136 1
0.58072644 -1.8667927 0.52384979 100
0.58187467 -1.8785727 -0.5269556 100
0.57654309 -1.8625091 0.034032192 100
0.39681801 -1.2827044 -0.30998254 100
0.58614069 -1.8946851 0.10393922 100
0.39490879 -1.2773224 -0.25988188 46
0.58111095 -1.8807517 0.17221974 100
0.44294116 -1.434456 -0.23778042 88
0.58359671 -1.8911369 0.2430075 100
0.5092569 -1.6502398 -0.21205269 17
0.58215845 -1.8876454 0.31286895 100
0.43660897 -1.4165797 -0.12968774 5
0.57215172 -1.8575007 0.37780184 100
0.42895386 -1.3934705 -0.076410502 19
0.58250678 -1.892292 0.45710054 97
0.43393737 -1.4105357 -0.025759753 9
0.57680368 -1.8760941 0.52592033 100
0.57564199 -1.880492 -0.5269556 100
0.57036358 -1.8644108 0.034032192 100
0.38914365 -1.2728317 -0.30728313 100
0.58043832 -1.8985285 0.10404389 100
0.38952345 -1.2748699 -0.25911862 46
0.57487112 -1.8826683 0.17221974 100
0.43760532 -1.4340277 -0.23746756 16
0.57442689 -1.8835679 0.24178879 100
0.48698893 -1.5968555 -0.20498425 26
0.57474393 -1.8857863 0.31224322 100
0.43539208 -1.4294554 -0.13073361 5
0.56598884 -1.8593876 0.37780184 100
0.42258653 -1.389153 -0.07609649 19
0.57282519 -1.883027 0.45440111 100
0.42576775 -1.4004877 -0.025550324 29
0.57057911 -1.8779967 0.52592033 100
0.56828421 -1.8786924 -0.52592033 100
0.56649226 -1.8739486 0.034171812 100
0.38604805 -1.2778461 -0.30818295 100
0.56836367 -1.8813236 0.10299717 100
0.38472638 -1.2742751 -0.258737 45
0.56977582 -1.8883792 0.17256837 100
0.43455824 -1.4411446 -0.23840615 40
0.57104152 -1.8949656 0.2430075 100
0.56506944 -1.876333 0.310366 100
0.42548159 -1.4137207 -0.12916481 21
0.56321251 -1.8725348 0.38009155 100
0.56545615 -1.8811836 0.45350131 100
0.41479281 -1.380825 -0.02516637 12
0.56545919 -1.8835789 0.5269556 100
0.55996192 -1.8771582 -0.52488506 100
0.55815011 -1.8722773 0.034102004 100
0.38225126 -1.2830542 -0.30908275 100
0.56227607 -1.8873204 0.10320652 100
0.37983069 -1.2757429 -0.258737 45
0.56024796 -1.8829145 0.17187113 100
0.42508051 -1.4295485 -0.23621608 51
0.56376123 -1.8971443 0.2430075 100
0.40802059 -1.3739311 -0.17597936 171
0.55504888 -1.8690208 0.30880168 100
0.55825156 -1.8822122 0.38161799 100
0.40639186 -1.3710773 -0.074945092 150
0.55789983 -1.8834385 0.45350131 100
0.55712587 -1.8820314 0.52592033 100
0.55122304 -1.8716885 -0.52281445 100
0.55080861 -1.8702812 0.034032192 100
0.38129562 -1.2955315 -0.31178215 100
0.55681175 -1.8931037 0.10341586 100
0.37482163 -1.2751774 -0.25835541 46
0.55086422 -1.8753006 0.17099957 100
0.42423472 -1.4442173 -0.23840615 30
0.55858517 -1.9028131 0.24349497 100
0.55018866 -1.8766338 0.30974028 100
0.54869473 -1.8727487 0.37932828 100
0.55274576 -1.8890187 0.45440111 100
0.54730159 -1.8728389 0.52281445 100
0.54501319 -1.8735061 -0.52281445 100
0.54204357 -1.864512 0.033892576 100
0.37459642 -1.289369 -0.30998254 100
0.55131412 -1.898872 0.10362521 100
0.37223309 -1.2820694 -0.25950024 45
0.54408717 -1.8752036 0.17082524 100
0.41809061 -1.4418949 -0.23778042 58
0.55083489 -1.9009378 0.2430075 100
0.4881089 -1.6855707 -0.21546502 18
0.54363459 -1.8785429 0.30974028 100
0.53779083 -1.859565 0.37627536 100
0.54723001 -1.8946812 0.45530096 97
0.45084488 -1.5619891 -0.028377613 1
0.5396902 -1.8710257 0.52177918 100
0.53814274 -1.8754911 -0.52281445 100
0.5366351 -1.8702369 0.033962384 100
0.36579621 -1.2756828 -0.30638334 100
0.54248142 -1.893105 0.10320652 100
0.36699107 -1.2815379 -0.25911862 47
0.53830713 -1.8810161 0.17117387 100
0.41497564 -1.4510146 -0.2390319 51
0.53982908 -1.8875805 0.24105757 100
0.47567633 -1.6643602 -0.21254015 19
0.53870136 -1.8861272 0.31067887 100
0.41340855 -1.4484032 -0.13177948 2
0.52989453 -1.8577477 0.37551212 100
0.39912957 -1.4002275 -0.076305829 5
0.53921413 -1.8929257 0.45440111 99
0.5012691 -1.7597187 -0.031937905 1
0.53527153 -1.8803303 0.52384979 100
0.5326457 -1.8810759 -0.52384979 100
0.52759886 -1.8644946 0.033822764 100
0.36005759 -1.2732645 -0.30548352 100
0.53119421 -1.8797047 0.10236914 100
0.36037979 -1.275254 -0.25759214 46
0.53282076 -1.8867184 0.1715225 100
0.41312739 -1.463861 -0.2409091 10
0.53398472 -1.8933675 0.24154507 100
0.47172672 -1.6737351 -0.2135151 12
0.52910721 -1.878582 0.30911455 100
0.43751815 -1.5533973 -0.1411923 1
0.52553421 -1.8671454 0.3770386 100
0.3942394 -1.4016123 -0.076305829 3
0.52943951 -1.8835403 0.45170173 100
0.48724505 -1.7345914 -0.031449236 1
0.52942038 -1.8859996 0.52488506 100
0.52399665 -1.8754814 -0.52177918 100
0.52431375 -1.8778809 0.034032192 100
0.35875335 -1.2857759 -0.30818295 100
0.52570242 -1.8853951 0.10257848 100
0.35487151 -1.272722 -0.25682893 47
0.52409244 -1.8808897 0.17082524 100
0.40748531 -1.4633912 -0.24059623 6
0.5273726 -1.8952198 0.24154507 100
0.46534976 -1.6734591 -0.21327138 22
0.52201736 -1.8785143 0.30880168 100
0.42675841 -1.5357184 -0.13944918 1
0.52006423 -1.8727518 0.37780184 100
0.39361721 -1.418376 -0.077143207 3
0.52181971 -1.8816212 0.45080194 100
0.5004133 -1.805656 -0.03270581 1
0.51974016 -1.8766654 0.52177918 100
0.51539361 -1.8698494 -0.51970869 100
0.51563162 -1.8719882 0.033892576 100
0.35633147 -1.2945358 -0.30998254 100
0.51944727 -1.887128 0.10257848 100
0.34938544 -1.270167 -0.25606567 48
0.51593941 -1.8769443 0.17030232 100
0.39295602 -1.4305179 -0.23496459 7
0.52180469 -1.9008777 0.24203253 100
0.45687968 -1.6655014 -0.21205269 19
0.51474011 -1.8764249 0.30817595 100
0.4235023 -1.5448848 -0.14014643 1
0.51144904 -1.8669817 0.37627536 100
0.39182788 -1.4312996 -0.077771239 3
0.51627702 -1.8871906 0.45170173 100
0.50181019 -1.8343089 -0.033194479 3
0.51147628 -1.8709247 0.51970869 100
0.50886345 -1.871637 -0.51970869 100
0.50732243 -1.8659692 0.033752955 100
0.3479493 -1.2806659 -0.30638334 100
0.51495022 -1.8966396 0.10299717 100
0.34700575 -1.278958 -0.25759214 46
0.50938445 -1.8787339 0.17030232 100
0.51446021 -1.8987657 0.24154507 100
0.45861727 -1.6938328 -0.21546502 45
0.50663924 -1.8724899 0.30723733 100
0.41498697 -1.5348138 -0.13910057 2
0.50218064 -1.8572963 0.37398565 100
0.41312772 -1.5289971 -0.083004832 1
0.51204789 -1.8964176 0.45350131 100
0.49227843 -1.8244655 -0.03298505 3
0.50494236 -1.8726987 0.51970869 100
0.50465679 -1.8807776 -0.52177918 100
0.49977002 -1.8638657 0.033683144 100
0.34246799 -1.2781079 -0.30548352 100
0.50555634 -1.8867617 0.10236914 100
0.34276262 -1.2801017 -0.25759214 47
0.50418168 -1.8842621 0.17065094 100
0.38576117 -1.4427011 -0.23652895 12
0.50372934 -1.8852074 0.23959514 100
0.44809309 -1.6781622 -0.21327138 45
0.50450402 -1.8894279 0.30974028 100
0.41297692 -1.5477316 -0.14014643 2
0.49569413 -1.8590379 0.37398565 100
0.41087338 -1.5420094 -0.083632864 1
0.50341958 -1.890661 0.45170173 100
0.4769645 -1.7913053 -0.032356761 1
0.49872941 -1.8743628 0.51970869 100
0.4980883 -1.8825277 -0.52177918 100
0.49563238 -1.8732456 0.033822764 100
0.33822787 -1.2792364 -0.30548352 100
0.495906 -1.876929 0.10174111 100
0.3372899 -1.2774938 -0.25682893 46
0.49861783 -1.8898635 0.17099957 100
0.38853383 -1.4726228 -0.24122196 7
0.4994995 -1.8945454 0.2405701 100
0.44050258 -1.6719606 -0.21229641 45
0.49639669 -1.8854464 0.30880168 100
0.41061336 -1.5607249 -0.1411923 2
0.49052581 -1.8644688 0.37474889 100
0.40474209 -1.5395001 -0.083423525 1
0.49417606 -1.8810112 0.4490023 100
0.4575063 -1.7426713 -0.031449236 1
0.49512511 -1.8873039 0.52281445 100
0.48989129 -1.8766922 -0.51970869 100
0.49010015 -1.8788341 0.033892576 100
0.33425179 -1.2822951 -0.30593342 100
0.49035811 -1.8825141 0.10195045 100
0.33107218 -1.2710059 -0.25530246 47
0.48933691 -1.8799376 0.16995369 100
0.38438559 -1.4777936 -0.24184772 10
0.49388191 -1.90012 0.24105757 100
0.43516284 -1.6754093 -0.21254015 48
0.48683465 -1.8756957 0.30692446 100
0.39916047 -1.5390056 -0.13910057 2
0.48500034 -1.8699704 0.37551212 100
0.40036774 -1.5447704 -0.083632864 1
0.48858422 -1.8864977 0.44990209 100
0.4414002 -1.7055393 -0.030751141 1
0.48466435 -1.8740585 0.51867342 100
0.48108494 -1.8709912 -0.51763809 100
0.48104864 -1.87085 0.03371805 100
0.3312287 -1.2891163 -0.30728313 100
0.48378411 -1.8842143 0.10195045 100
0.3254357 -1.2684076 -0.25453922 47
0.48046404 -1.8739986 0.16925645 100
0.379457 -1.4811059 -0.24216059 15
0.48724642 -1.9018323 0.24105757 100
0.42980403 -1.6788412 -0.21278389 45
0.47832587 -1.8697287 0.30567297 100
0.39674681 -1.5519714 -0.14014643 2
0.47717142 -1.8679311 0.37474889 100
0.39766729 -1.5578387 -0.084260903 1
0.4826299 -1.8920525 0.45080194 100
0.44434071 -1.7419475 -0.031379428 1
0.47716552 -1.8719946 0.51763809 100
0.4745512 -1.872659 -0.51763809 100
0.4717342 -1.8629079 0.033543523 100
0.32458946 -1.2827649 -0.30548352 100
0.47883326 -1.89372 0.10236914 100
0.32293129 -1.2771491 -0.25606567 47
0.47489575 -1.8795278 0.16960508 100
0.37283373 -1.4766757 -0.24122196 16
0.47930133 -1.899756 0.2405701 100
0.42558917 -1.6881046 -0.21375884 35
0.4734 -1.8791313 0.30692446 100
0.39035335 -1.5494829 -0.13979781 2
0.46968988 -1.8657777 0.37398565 100
0.39125246 -1.5553434 -0.084051557 1
0.47697255 -1.8975055 0.45170173 100
0.43600452 -1.7358066 -0.031239808 1
0.47030106 -1.8737309 0.51763809 100
0.46894777 -1.8780529 -0.51867342 100
0.46619675 -1.8684238 0.033613335 100
0.31633821 -1.2687632 -0.30188429 100
0.47028881 -1.8876278 0.10195045 100
0.32036984 -1.2858887 -0.25759214 46
0.46833202 -1.8811741 0.16960508 100
0.36815393 -1.4798851 -0.24153483 19
0.46979344 -1.8898587 0.23910768 100
0.41395125 -1.6664615 -0.21083398 30
0.466362 -1.878855 0.30661157 100
0.38590235 -1.5547034 -0.14014643 2
0.46033818 -1.8559728 0.37169594 100
0.38101614 -1.5373136 -0.083004832 1
0.46847236 -1.8915924 0.44990209 100
0.43090346 -1.7412002 -0.031309616 1
0.4646852 -1.8791121 0.51867342 100
0.46238902 -1.8796785 -0.51867342 100
0.46014938 -1.8719816 0.033648241 100
0.31376693 -1.2774297 -0.30368391 100
0.4608402 -1.8776199 0.10132242 100
0.31307131 -1.2755592 -0.25530246 48
0.46176258 -1.8827975 0.16960508 100
0.36392644 -1.4849983 -0.24216059 19
0.46413821 -1.8953432 0.23959514 100
0.407188 -1.6640399 -0.21034651 30
0.45698556 -1.8689584 0.30473438 100
0.38236594 -1.5637825 -0.14084367 2
0.45385697 -1.8575684 0.37169594 100
0.37470031 -1.5347536 -0.082795486 1
0.45955703 -1.8837502 0.44765261 100
0.42008704 -1.7232656 -0.030960569 2
0.4590376 -1.8844764 0.51970869 100
0.45491517 -1.8775257 -0.51763809 100
0.45455319 -1.8774635 0.03371805 100
0.31022227 -1.2823055 -0.30458373 100
0.45662996 -1.8889238 0.10184578 100
0.30769441 -1.2728277 -0.25453922 47
0.45518774 -1.8843977 0.16960508 100
0.36059436 -1.4939406 -0.24341206 19
0.45751956 -1.8969518 0.23959514 100
0.40230709 -1.6693107 -0.21083398 16
0.44860893 -1.8628603 0.30348289 100
0.37037438 -1.5379894 -0.13840331 2
0.45104456 -1.8744115 0.37474889 100
0.37494385 -1.5593553 -0.084051557 1
0.45343414 -1.8872377 0.4481025 100
0.41220185 -1.7169437 -0.030820949 2
0.45155543 -1.8823104 0.51867342 100
0.44477168 -1.8640695 -0.51349699 100
0.44706926 -1.8751483 0.033648241 100
0.30664763 -1.2871718 -0.30548352 100
0.4499006 -1.8884847 0.10174111 100
0.30324948 -1.273894 -0.25453922 48
0.44584084 -1.8743453 0.16855921 100
0.35172319 -1.4798155 -0.2409091 19
0.45181233 -1.9024003 0.24008264 100
0.36989298 -1.5586808 -0.19669713 4
0.44288507 -1.8662598 0.30379578 100
0.36408433 -1.5353956 -0.1380547 3
0.44449884 -1.8759744 0.37474889 100
0.36673748 -1.5489933 -0.083423525 1
0.44774115 -1.8926017 0.4490023 100
0.44175547 -1.868757 0.51453227 100
0.44002932 -1.8731334 -0.51556754 100
0.43810463 -1.8649404 0.033438813 100
0.30015084 -1.2786958 -0.30323401 100
0.443306 -1.8900436 0.10174111 100
0.2996968 -1.2787676 -0.25530246 48
0.43929535 -1.8758903 0.16855921 100
0.34591314 -1.4771271 -0.24028336 21
0.44459659 -1.9000223 0.23959514 100
0.34754828 -1.4864464 -0.18743508 6
0.43726686 -1.8716414 0.30442151 100
0.35781649 -1.5327768 -0.13770607 2
0.43381229 -1.8583198 0.3709327 100
0.36159894 -1.5502011 -0.083423525 1
0.44190487 -1.8959739 0.44945222 100
0.43610531 -1.8740509 0.51556754 100
0.4338153 -1.8745823 -0.51556754 100
0.43159229 -1.8664582 0.033438813 100
0.29524696 -1.277837 -0.30278412 100
0.43580696 -1.8876874 0.10153177 100
0.29545456 -1.2797544 -0.25530246 48
0.4339681 -1.8812194 0.16890782 100
0.33232471 -1.4417522 -0.23433885 30
0.43528852 -1.8899559 0.23813272 100
0.31831676 -1.3831861 -0.17427318 19
0.43161625 -1.8770066 0.30504724 100
0.35541075 -1.5456053 -0.13875194 2
0.42644376 -1.8559958 0.37016946 100
0.35350403 -1.5397741 -0.082795486 1
0.43441227 -1.8937062 0.4485524 100
0.43042347 -1.8793278 0.51660281 100
0.42726934 -1.8760852 -0.51556754 100
0.42684931 -1.8757529 0.033578429 100
0.28992048 -1.2750592 -0.30188429 100
0.42656028 -1.8775114 0.10090373 100
0.29055074 -1.2788634 -0.25492084 51
0.4273985 -1.8827227 0.16890782 100
0.30893728 -1.3619932 -0.22119835 123
0.430444 -1.8992077 0.23910768 100
0.42331776 -1.8707952 0.30379578 100
0.35001338 -1.5468365 -0.13875194 2
0.42169452 -1.8651327 0.37169594 100
0.34812701 -1.5409986 -0.082795486 1
0.42522502 -1.8838055 0.44585299 100
0.42386094 -1.8808188 0.51660281 100
0.4198733 -1.8737948 -0.51453227 100
0.42117286 -1.8811342 0.033648241 100
0.28631878 -1.2798671 -0.30278412 100
0.42033181 -1.8789155 0.10090373 100
0.2847999 -1.274122 -0.25377598 48
0.41995558 -1.8803144 0.16855921 100
0.3063325 -1.372703 -0.2227627 142
0.42381158 -1.9006988 0.23910768 100
0.30131409 -1.3524356 -0.17012961 100
0.41410482 -1.8586919 0.30160567 100
0.33941674 -1.5247114 -0.1366602 4
0.41773874 -1.8780919 0.37398565 100
0.33927929 -1.5266068 -0.081958115 6
0.42033666 -1.8928879 0.44765261 100
0.36977127 -1.6651784 -0.029773805 4
0.41678464 -1.8784422 0.51556754 100
0.4100031 -1.8601565 -0.51039118 100
0.41234982 -1.8708035 0.033438813 100
0.28333035 -1.2865189 -0.30413383 100
0.41462898 -1.8842726 0.10111307 100
0.27950764 -1.2712735 -0.25301275 48
0.41167945 -1.8739847 0.16786195 100
0.2979641 -1.3563468 -0.21994688 133
0.41750652 -1.9020936 0.23910768 100
0.29682755 -1.3534273 -0.17012961 100
0.40719137 -1.8581966 0.30129281 100
0.3357968 -1.5336721 -0.13735744 4
0.40898895 -1.86796 0.37169594 100
0.33592251 -1.5355281 -0.082376808 4
0.4128086 -1.8885601 0.44630289 100
0.36651626 -1.6781808 -0.029983234 5
0.40775403 -1.868561 0.51246172 100
0.40547079 -1.8690578 -0.51246172 100
0.40454635 -1.8663685 0.033334095 100
0.27760035 -1.2817863 -0.30278412 100
0.40964639 -1.8914932 0.10142709 100
0.27653599 -1.2779499 -0.25415757 51
0.40630504 -1.8792343 0.16821058 100
0.29155928 -1.3496555 -0.21869542 126
0.40918908 -1.8957778 0.23813272 100
0.29293832 -1.3583361 -0.1706171 100
0.40394208 -1.8730536 0.30348289 100
0.32986984 -1.5308816 -0.13700882 5
0.39998701 -1.8578606 0.36940622 100
0.33392045 -1.5523121 -0.083214179 1
0.40826139 -1.8995156 0.4485524 100
0.36010894 -1.675477 -0.029913425 5
0.4031778 -1.877458 0.51453227 100
0.39894405 -1.8704617 -0.51246172 100
0.39835495 -1.8676997 0.033334095 100
0.27091125 -1.2712642 -0.30008471 100
0.40096188 -1.8831443 0.10090373 100
0.27370763 -1.2865884 -0.25568405 51
0.40057108 -1.8845391 0.16855921 100
0.28708202 -1.3506149 -0.21869542 140
0.40125078 -1.8893571 0.23715776 100
0.28637218 -1.3495909 -0.16939841 100
0.39740139 -1.8744521 0.30348289 100
0.32328537 -1.5261766 -0.13648589 4
0.39382383 -1.8591768 0.36940622 100
0.3295984 -1.5573188 -0.083423525 1
0.39913788 -1.887513 0.4454031 100
0.35053787 -1.6591152 -0.029599281 8
0.3966215 -1.8788539 0.51453227 100
0.39511931 -1.8831185 -0.51556754 100
0.39347416 -1.8769076 0.033473715 100
0.26767066 -1.2779241 -0.3014344 100
0.39397687 -1.8825775 0.10079906 100
0.26702669 -1.2759593 -0.25339437 51
0.39431968 -1.885857 0.16855921 100
0.28236586 -1.3516088 -0.21869542 119
0.3946532 -1.8907462 0.23715776 100
0.27963299 -1.3408659 -0.16817972 100
0.38964728 -1.8700262 0.3025443 100
0.32120478 -1.5429001 -0.13788037 4
0.38813213 -1.8643841 0.37016946 100
0.32009286 -1.5389057 -0.082376808 1
0.39215046 -1.8869867 0.44495317 100
0.32848278 -1.5820115 -0.028203089 10
0.39084569 -1.8840102 0.51556754 100
0.38509643 -1.869417 -0.51142645 100
0.38692006 -1.8782697 0.033473715 100
0.26360121 -1.2807593 -0.30188429 100
0.38700071 -1.8819851 0.1006944 100
0.25958252 -1.2634678 -0.25072303 52
0.38580248 -1.8794827 0.16786195 100
0.27780691 -1.3545697 -0.21900828 113
0.38964611 -1.8998908 0.23813272 100
0.27574784 -1.3457232 -0.16866718 100
0.38034365 -1.8578284 0.30035421 100
0.31262296 -1.5283961 -0.13648589 4
0.38208234 -1.8696413 0.3709327 100
0.31524941 -1.5439824 -0.082586147 1
0.38601044 -1.8922303 0.44585299 100
0.31976086 -1.5674735 -0.02792385 10
0.38349539 -1.8815769 0.51453227 100
0.37741932 -1.8650695 -0.50987357 72
0.3784481 -1.871835 0.033334095 100
0.25967675 -1.2855372 -0.30278412 100
0.38082439 -1.8852822 0.10079906 100
0.2575011 -1.275913 -0.25301275 55
0.37766418 -1.8730057 0.16716471 100
0.27229661 -1.3516582 -0.21838254 113
0.38268024 -1.901306 0.23813272 100
0.27081364 -1.3467247 -0.16866718 100
0.37463537 -1.863018 0.30097994 100
0.30453879 -1.5158046 -0.13526571 5
0.37478074 -1.8671138 0.37016946 100
0.30985811 -1.5450734 -0.082586147 1
0.37940317 -1.8935661 0.44585299 100
0.31664473 -1.5803447 -0.028133281 9
0.37464967 -1.8715386 0.51142645 100
0.37145942 -1.869157 0.033264287 100
0.25389439 -1.2787455 -0.3009845 100
0.37540725 -1.8924772 0.10111307 100
0.25304556 -1.2768042 -0.25301275 52
0.37189803 -1.8782214 0.16751333 100
0.26666191 -1.3467405 -0.21744394 126
0.37483212 -1.8947753 0.23715776 100
0.26788577 -1.3554051 -0.16964214 100
0.36927786 -1.8701282 0.30191854 100
0.30078825 -1.5246772 -0.13596295 5
0.36630735 -1.8567896 0.36787975 100
0.31245723 -1.5852835 -0.084679581 1
0.37538075 -1.906286 0.4485524 100
0.31035429 -1.5775161 -0.028063469 9
0.36885986 -1.8766261 0.51246172 100
0.36569837 -1.8743676 0.033334095 100
0.2479378 -1.271973 -0.29918489 100
0.36803538 -1.8898553 0.10090373 100
0.24956079 -1.2814902 -0.25377598 51
0.36642852 -1.8833557 0.16786195 100
0.26120523 -1.3437848 -0.21681818 119
0.36670208 -1.8882775 0.23618281 100
0.26239684 -1.3524343 -0.16915466 100
0.36349943 -1.8752844 0.3025443 100
0.33667782 -1.7369125 -0.1547886 2
0.35907716 -1.854202 0.36711654 100
0.36079434 -1.8648118 -0.099542998 3
0.36650524 -1.8961048 0.44585299 100
0.30636245 -1.5864435 -0.028203089 10
0.36377075 -1.8854897 0.51453227 100
0.24291734 -1.2674075 -0.34578225 100
0.35840139 -1.8717047 0.033264287 100
0.24276392 -1.2690028 -0.2982851 100
0.35843679 -1.8754344 0.10006636 100
0.24361178 -1.2746401 -0.25224951 51
0.35985234 -1.8846234 0.16786195 100
0.25799367 -1.35245 -0.21806967 119
0.36085176 -1.8934461 0.23667029 100
0.25358999 -1.3318914 -0.16647354 97
0.35621312 -1.8726606 0.30191854 100
0.35518557 -1.8672585 -0.16629316 2
0.35480192 -1.8670167 0.36940622 100
0.35912544 -1.8915687 -0.10090373 5
