# .PCD v0.7 - Point Cloud Data file format
VERSION 0.7
FIELDS x y z intensity
SIZE 4 4 4 4
TYPE F F F F
COUNT 1 1 1 1
WIDTH 1368
HEIGHT 1
VIEWPOINT 0 0 0 1 0 0 0
POINTS 1368
DATA ascii
0.032034196 -1.7151482 0.15008219 100
0.028994052 -1.5523753 -0.245915 36
0.034923717 -1.8874998 0.2317955 100
0.030374601 -1.6572738 -0.20352182 143
0.033917919 -1.8683985 0.29597405 100
0.02969058 -1.6514241 -0.14450422 100
0.033597227 -1.8687162 0.36330032 100
0.029189995 -1.6394899 -0.085935652 100
0.032942072 -1.8685515 0.43145612 100
0.029001445 -1.6614939 -0.0290059 92
0.03264422 -1.8890691 0.50625008 100
0.030025989 -1.8697914 -0.50107372 100
0.027598539 -1.7375162 0.030332282 72
0.020324802 -1.2938039 -0.29873499 100
0.028355006 -1.8252746 0.095670134 100
0.019882606 -1.2798874 -0.24881494 53
0.026224121 -1.7072763 0.14938495 100
0.023605024 -1.5544424 -0.24622789 34
0.028454026 -1.8955497 0.23277046 100
0.024648301 -1.6613394 -0.20400929 147
0.027250936 -1.8586298 0.29440969 100
0.024126602 -1.6455369 -0.14398128 100
0.027131032 -1.8727483 0.36406359 100
0.023638381 -1.6515641 -0.086563677 126
0.026584649 -1.8803463 0.43415552 100
0.023173803 -1.6595855 -0.028970996 88
0.025996389 -1.885308 0.50521481 100
0.02340186 -1.8621579 -0.49900314 100
0.02158282 -1.7416011 0.030402092 72
0.015879849 -1.2997128 -0.30008471 100
0.022127917 -1.837345 0.096298166 100
0.015485891 -1.2858385 -0.2499598 57
0.020122329 -1.6954039 0.14833906 100
0.018132808 -1.5505648 -0.24560213 34
0.021837324 -1.8956374 0.23277046 100
0.018848948 -1.6614153 -0.20400929 135
0.020740826 -1.8567383 0.29409683 100
0.018337905 -1.6416266 -0.14363267 100
0.020507578 -1.8649789 0.36253712 100
0.017894769 -1.6536338 -0.086668357 130
0.020062296 -1.884325 0.43505535 100
0.017317563 -1.6536574 -0.02886628 81
0.019375663 -1.8815237 0.50417954 100
0.016936809 -1.8660918 -0.50003839 100
0.015432118 -1.7336674 0.030262474 68
0.011291852 -1.2939143 -0.29873499 100
0.015133456 -1.7695068 0.092739321 100
0.011014136 -1.2878478 -0.25034142 55
0.014271063 -1.7034332 0.14903632 100
0.012687764 -1.5466681 -0.2449764 36
0.015188028 -1.8917321 0.232283 100
0.013143107 -1.6733813 -0.20547174 147
0.014350661 -1.8686513 0.29597405 100
0.012607596 -1.6416806 -0.14363267 100
0.013967722 -1.861113 0.36177388 100
0.012034707 -1.6417029 -0.086040318 140
0.013512714 -1.8882809 0.43595514 100
0.01165695 -1.6697052 -0.029145518 72
0.01278145 -1.8777164 0.50314426 100
0.010465713 -1.8738669 -0.50210893 100
0.0093805538 -1.7337106 0.030262474 57
0.0067139231 -1.2822536 -0.29603559 100
0.0088656023 -1.7515738 0.091797277 131
0.0065583526 -1.2957313 -0.25186789 55
0.0083443103 -1.7074574 0.14938495 100
0.0072887656 -1.5467029 -0.2449764 36
0.0085306829 -1.879863 0.23082055 100
0.0072498196 -1.6615064 -0.20400929 139
0.0078442609 -1.8726408 0.29659978 100
0.0069103227 -1.6496842 -0.14432991 100
0.0074870717 -1.8650767 0.36253712 100
0.0062961113 -1.6397376 -0.085935652 121
0.0069210231 -1.8883165 0.43595514 100
0.0058426335 -1.6737349 -0.029215328 72
0.0062396782 -1.8816131 0.50417954 100
0.0039248043 -1.8738919 -0.50210893 100
0.0033476574 -1.7437313 0.030436996 61
0.0022515506 -1.2900641 -0.2978352 100
0.00273275 -1.7396106 0.091169246 134
0.0020262324 -1.2898564 -0.25072303 57
0.0023952008 -1.7154458 0.15008219 100
0.0018993309 -1.5546204 -0.24622789 33
0.0019730134 -1.8838518 0.23130804 100
0.0014430601 -1.6535814 -0.20303436 139
0.0013074238 -1.8726568 0.29659978 100
0.0011545438 -1.6536829 -0.14467853 100
0.00097847497 -1.869018 0.36330032 100
0.00057177263 -1.6377524 -0.085830979 140
0.00032765686 -1.8766369 0.43325573 100
0.0011515826 0.54986942 -0.067515619 27
0.0013435822 0.54989791 -0.048109971 20
0.017598126 6.3022017 1.4549835 29
0.011421366 3.6357272 0.97419494 100
0.0032041692 0.57368273 -0.070440486 25
0.0033696317 0.56782103 -0.049678776 80
0.0035511786 0.5652132 -0.029622154 16
0.040698342 6.3020945 1.4549835 26
0.02407488 3.6298695 0.972642 100
0.0051450059 0.54589051 -0.047761347 52
0.0056218714 0.57518315 -0.030145515 65
0.062736966 6.3058114 1.4558831 25
0.037378054 3.6297569 0.972642 100
0.0068031801 0.53394651 -0.065565713 28
0.0067930589 0.52594692 -0.046018228 21
0.0070201815 0.52922714 -0.027738059 35
0.084717445 6.3036051 1.4554334 24
0.0089017376 0.65383983 -0.011413874 16
0.050102279 3.6334674 0.97367728 100
0.0086671021 0.53391951 -0.065565713 28
0.0085636843 0.52193582 -0.045669612 22
0.0084660752 0.50523567 -0.026481997 18
0.10652435 6.2915802 1.4527339 22
0.010089146 0.5898239 -0.01029692 18
0.062917896 3.6409969 0.97574782 100
0.12500082 6.3371673 -0.77825767 2
0.12589347 6.3265762 -0.55361325 13
0.010391493 0.51319039 -0.026900683 18
0.12868306 6.3009119 1.4549835 25
0.075427331 3.6310978 0.97315967 100
0.14711654 6.3366923 -0.77825767 2
0.14746575 6.3041887 -0.55169582 27
0.1505978 6.3435049 -0.33254269 12
0.15081801 6.3062687 1.4563332 28
0.087958686 3.6250188 0.97160673 100
0.16923653 6.3361402 -0.77825767 9
0.16936515 6.2996516 -0.5513472 35
0.17187157 6.3109965 -0.33086795 25
0.17299193 6.3115482 1.4576828 30
0.17969009 6.5145297 -0.11375479 2
0.1006664 3.6266208 0.9721244 100
0.18917626 6.299829 -0.77387041 9
0.19128919 6.2970309 -0.55117291 57
0.19353063 6.2983799 -0.33023992 43
0.193737 6.3050961 1.4563332 30
0.20166136 6.5258904 -0.11396421 10
0.11293319 3.6339905 0.97419494 100
0.21048656 6.481596 0.11319631 4
0.20953563 6.2832947 -0.77192044 11
0.21217158 6.2963619 -0.55117291 100
0.21448547 6.2996998 -0.33034459 53
0.21438089 6.296628 1.4545335 28
0.22125091 6.4652305 -0.11291707 19
0.12531462 3.6432495 0.9767831 100
0.22618374 6.3189907 0.11036902 10
0.23395763 6.4728847 0.33945104 3
0.23342635 6.427196 0.56267744 2
0.23000409 6.2428498 -0.76704568 9
0.23015159 6.1880679 -0.54176009 70
0.23220196 6.1851492 -0.32437828 48
0.23650379 6.2997365 1.4554334 25
0.23748814 6.2965636 -0.10998507 46
0.13773783 3.6350684 0.97471261 100
0.2480794 6.2861485 0.10981054 28
0.25132236 6.3123293 0.33107728 13
0.25628477 6.4088297 -1.2467461 1
0.25379884 6.3466654 0.55570501 6
0.25907698 6.4225059 0.78922594 1
0.25336745 6.2538657 -0.76850814 11
0.25502551 6.2409329 -0.54646653 60
0.025599198 0.62378985 0.12135453 3
0.25849038 6.2720609 -0.32898384 53
0.25999478 6.3085632 1.4576828 20
0.26039785 6.2916551 -0.10991526 55
0.15074012 3.6268182 0.972642 100
0.27094686 6.2812014 0.10974073 62
0.27413148 6.3293724 0.33201933 31
0.27592346 6.3451314 -1.2345343 1
0.27558002 6.3118544 0.55274171 18
0.27999511 6.3620181 0.78191376 6
0.27847964 6.3024745 -0.77460164 19
0.28051743 6.3485928 1.0064995 1
0.27892965 6.287775 -0.55065 100
0.28649813 6.4330983 1.2517071 0
0.28127617 6.2910733 -0.33003056 100
0.2839905 6.3270354 1.4621819 20
0.28191155 6.2807188 -0.10974073 72
0.16374625 3.6339896 0.97471261 100
0.29205474 6.2862611 0.10984544 100
0.29820633 6.3946619 -1.4779284 2
0.29566476 6.3164062 0.3313913 45
0.29751927 6.3323631 -1.2322445 2
0.29751563 6.3088636 0.55256736 27
0.29977855 6.3332944 0.77850145 15
0.29947081 6.3034992 -0.77484536 21
0.30201346 6.3337631 1.0043093 8
0.30097029 6.288753 -0.55082428 100
0.30407724 6.3536725 1.2364424 4
0.30232698 6.2940955 -0.33023992 100
0.30468434 6.3202195 1.4608321 23
0.30441216 6.2916808 -0.10995016 76
0.17680597 3.6411138 0.9767831 100
0.31449372 6.2951899 0.11001997 100
0.31916174 6.366334 -1.4716297 2
0.31610784 6.305418 0.33086795 91
0.31812367 6.3234982 -1.2307181 2
0.31853715 6.3098321 0.55274171 56
0.3214826 6.3242788 0.77752644 25
0.32096535 6.2925029 -0.77362669 21
0.32211143 6.3149714 1.0014936 15
0.32182163 6.2877207 -0.55082428 100
0.3236374 6.3015943 1.2265203 7
0.32408872 6.2890129 -0.33003056 100
0.32644397 6.3132796 1.4594824 20
0.32486013 6.2826486 -0.10981054 82
0.18868019 3.6366491 0.97574782 100
0.3354727 6.2961087 0.11005487 100
0.33902496 6.3418889 -1.466231 2
0.33790368 6.3002863 0.33065861 100
0.33976862 6.314508 -1.2291917 2
0.34045488 6.3066916 0.55256736 94
0.34212956 6.3172312 0.77679521 37
0.34172133 6.2894216 -0.7733829 23
0.34404698 6.3118362 1.0011806 46
0.34376958 6.2865586 -0.55082428 100
0.34549597 6.3181295 1.2299548 17
0.34559721 6.2998691 -0.33065861 100
0.34802201 6.3238368 1.4621819 20
0.3465699 6.277483 -0.10974073 82
0.20126401 3.6340396 0.97523022 100
0.35688299 6.2849174 0.10988036 100
0.36093423 6.3367763 -1.4653312 4
0.35867649 6.2971377 0.33055395 100
0.36115608 6.3211865 -1.2307181 2
0.36090952 6.2975717 0.55187017 100
0.36440596 6.3199625 0.77728271 63
0.36413354 6.2961173 -0.77435786 23
0.36463249 6.3047447 1.0002421 63
0.36415488 6.2774282 -0.55012703 100
0.36697677 6.3070855 1.2280468 35
0.36758742 6.2986245 -0.33065861 100
0.37077913 6.3342557 1.4648812 33
0.36773717 6.2822881 -0.10984544 87
0.21297511 3.6275663 0.97367728 100
0.37748432 6.2797065 0.10981054 100
0.38288566 6.3511057 -1.4689304 4
0.38198301 6.3177772 0.33170533 100
0.38345829 6.3238068 -1.2314813 2
0.38313052 6.3002515 0.55221879 100
0.38511875 6.3147564 0.77679521 73
0.38561791 6.3047824 -0.77557659 23
0.38699937 6.3093476 1.0011806 92
0.38642764 6.2820849 -0.55065 100
0.38740635 6.297996 1.2265203 52
0.38798222 6.2893968 -0.33023992 100
0.39202163 6.3368812 1.4657811 58
0.38978374 6.2829623 -0.10988036 82
0.22599722 3.6325853 0.97523022 100
0.39952493 6.2803469 0.10984544 100
0.40257332 6.3108344 -1.4599323 4
0.40288806 6.2984667 0.33076328 100
0.40517735 6.3342557 -1.233771 2
0.40414706 6.3009343 0.55239308 100
0.4069052 6.309412 0.77630776 76
0.4068504 6.291512 -0.77411413 23
0.40927812 6.3119016 1.0018064 100
0.40874335 6.2866621 -0.55117291 100
0.4100267 6.3064008 1.2284284 71
0.40940991 6.2800326 -0.32982123 100
0.41324791 6.3218622 1.4626317 123
0.41210699 6.28755 -0.10998507 87
0.23918192 3.6394851 0.97730076 100
0.25344881 3.7760012 -1.0140531 1
0.42184845 6.2848992 0.10995016 93
0.42643332 6.3366117 -1.466231 4
0.42487001 6.2970219 0.33076328 100
0.42812443 6.3288107 -1.2330078 2
0.42683858 6.293447 0.55187017 100
0.42865601 6.3039918 0.77582031 76
0.42921618 6.2959952 -0.77484536 21
0.43077114 6.3025508 1.0005549 100
0.43122885 6.293148 -0.55187017 100
0.43327123 6.3068142 1.2288101 78
0.43325263 6.2904449 -0.33044925 100
0.43574336 6.3105845 1.4603822 138
0.43377534 6.2820835 -0.10991526 89
0.25228411 3.6444097 0.97885364 100
0.26662895 3.7750933 -1.0140531 1
0.4453032 6.2892952 0.11005487 100
0.44992983 6.3388939 -1.4671308 4
0.44684979 6.2955003 0.33076328 100
0.44993645 6.3233609 -1.2322445 2
0.45007569 6.3098054 0.55343896 100
0.45232773 6.310298 0.77679521 76
0.45271766 6.3003197 -0.77557659 21
0.45290878 6.3029795 1.0008678 100
0.45290878 6.2876296 -0.55152148 100
0.45542654 6.3072214 1.2291917 73
0.45578325 6.2968626 -0.33086795 100
0.45833457 6.3167996 1.4621819 138
0.45541349 6.2765412 -0.10984544 87
0.26444435 3.6357996 0.9767831 100
0.46630639 6.2897778 0.11008978 93
0.47065777 6.3334804 -1.466231 4
0.46985966 6.3078442 0.33149597 100
0.47171274 6.3178368 -1.2314813 2
0.47135648 6.2982612 0.55256736 100
0.47444066 6.3245997 0.77874517 81
0.47390422 6.302743 -0.7760641 19
0.47505465 6.3033295 1.0011806 100
0.47365502 6.2701168 -0.55012703 100
0.47634128 6.3056765 1.2291917 73
0.47726375 6.3032827 -0.33128664 100
0.47972041 6.3210745 1.4635316 136
0.47762498 6.2789016 -0.10991526 93
0.27625209 3.623297 0.97367728 100
0.48779628 6.2821312 0.10998507 100
0.49245921 6.3279133 -1.4653312 4
0.49249825 6.3141303 0.33191466 100
0.49388394 6.3318958 -1.2345343 2
0.49255201 6.3006363 0.55291605 100
0.49697962 6.3288426 0.7794764 70
0.4969939 6.3149028 -0.77777022 19
0.49705312 6.3016329 1.0011806 62
0.49647969 6.2803421 -0.55117291 100
0.49587244 6.2726612 1.2230858 22
0.49863413 6.2936144 -0.33086795 100
0.49684775 6.2571969 1.4491347 39
0.50049001 6.2891564 -0.11012468 93
0.28982055 3.6338651 0.9767831 100
0.51004422 6.2843761 0.11005487 100
0.51581025 6.3416939 -1.4689304 2
0.51307398 6.2944574 0.33097261 100
0.51964426 6.361351 -1.2406402 1
0.51173884 6.2511311 0.54873258 54
0.5117631 6.238039 0.76850814 33
0.51838201 6.3052154 -0.77679521 16
0.51272273 6.2230806 0.98897886 42
0.51905358 6.2865133 -0.55187017 100
0.51610607 6.2375398 1.2165983 20
0.52202666 6.2957249 -0.33107728 100
0.52574754 6.3271904 1.4657811 63
0.52310121 6.2953424 -0.11026431 46
0.30282325 3.6366818 0.97781837 100
0.52631301 6.2027631 0.10865869 100
0.53574687 6.3009262 -1.4599323 2
0.52952969 6.214922 0.32689041 65
0.53518116 6.2812514 -1.2253754 1
0.53508335 6.2671728 0.55030131 85
0.53920293 6.2895226 0.77508909 63
0.54132009 6.3012958 -0.77655149 19
0.54298097 6.3077559 1.002745 100
0.54150575 6.2906189 -0.55239308 100
0.53351003 6.1724844 -0.32469231 84
0.54715645 6.3175507 1.4639815 134
0.5373553 6.1917801 -0.10848416 29
0.31648594 3.6393964 0.97885364 100
0.55605727 6.2925167 0.11026431 100
0.55945837 6.318429 -1.4644314 4
0.55898541 6.3005714 0.33149597 100
0.5616132 6.3301907 -1.2352976 1
0.5603072 6.3029737 0.55361325 100
0.56415278 6.3212161 0.77923268 96
0.56313425 6.2973909 -0.77630776 21
0.56429237 6.2979517 1.0014936 100
0.56292909 6.2827368 -0.55187017 100
0.56508166 6.2944016 1.2284284 36
0.5609563 6.2362289 -0.32814649 100
0.56116062 6.2263217 1.4432859 20
0.39530343 4.3775187 -0.076720782 8
0.32849079 3.6305737 0.9767831 100
0.57564181 6.2646503 0.10981054 94
0.58722591 6.3785353 -1.4788282 2
0.58042383 6.3046498 0.33181 100
0.59055716 6.4024796 -1.249799 1
0.58047354 6.2811399 0.55187017 40
0.58658415 6.3111987 -0.77825767 11
0.58411926 6.2727981 -0.55117291 100
0.58922875 6.303833 -0.33181 84
0.5632692 6.0147777 1.3946966 12
0.59030324 6.3034558 -0.11050864 19
0.34016678 3.6256177 0.97574782 100
0.63151968 6.534678 1.2761306 1
0.56534076 5.8286109 1.3519558 9
0.35319576 3.6282535 0.9767831 100
0.42980021 4.3521628 0.076336823 2
0.4343611 4.3905115 0.23122028 6
0.43345287 4.365777 0.38383389 6
0.43456659 4.3614883 0.53817511 5
0.42927119 4.3007541 0.68455732 2
0.43689692 4.3694382 -0.38418248 6
0.42695677 4.2624912 0.83269054 2
0.43730009 4.3581042 -0.22954552 3
0.56696844 5.6404614 1.3087653 3
0.36619428 3.6366727 0.97937131 100
0.43610442 4.2711401 0.074940629 5
0.43706405 4.2657838 0.22473061 6
0.43544605 4.2354107 0.37250364 5
0.4339776 4.2138987 0.52013838 2
0.43514472 4.2108083 0.67047822 5
0.44866008 4.3341956 -0.38121921 6
0.43178967 4.1712227 0.81513608 2
0.44371495 4.2791524 -0.22546332 6
0.56674623 5.4563489 1.2664744 4
0.43933851 4.2225595 -0.074102923 4
0.37948471 3.6411374 0.98092425 100
0.44260928 4.1900458 0.073544443 2
0.44395176 4.1887589 0.2207531 1
0.44086421 4.1527123 0.36535689 1
0.4415347 4.1452451 0.51185131 5
0.4378767 4.0973053 0.65264469 2
0.66673154 6.2284884 -0.54803526 5
0.4354803 4.0681801 0.79529196 3
0.44736516 4.1723266 -0.2199157 1
0.56997514 5.3070798 1.2322818 5
0.70046806 6.5114346 -0.11431326 2
0.39177936 3.6359489 0.97988898 100
0.44594735 4.0851054 0.071729392 1
0.44769982 4.087914 0.21551949 1
0.44041386 4.0084748 0.35280645 6
0.44731697 4.0647516 0.50210178 2
0.45302859 4.1100559 -0.50770777 1
0.44371957 4.019177 0.64044279 9
0.68584293 6.2023602 -0.54594356 2
0.43958321 3.968991 0.77621108 3
0.45032203 4.059494 -0.21405408 2
0.5750035 5.1751885 1.2021384 7
0.44893271 4.0405169 -0.070961483 3
0.40361512 3.626879 0.97781837 100
0.44835779 3.9721673 0.069774717 5
0.45074755 3.9870956 0.21028589 5
0.44475055 3.9217856 0.34531105 4
0.44650489 3.9250185 0.48504004 6
0.71617794 6.2858214 -0.77679521 2
0.44768465 3.9292829 0.62636369 1
0.45223191 3.9630446 -0.34897158 2
0.44117308 3.8601518 0.75522202 4
0.45585954 3.9824939 -0.21007656 6
0.58352202 5.0898991 1.1827927 2
0.44845852 3.9117782 -0.068727575 6
0.41715354 3.6331251 0.97988898 100
0.451139 3.881274 0.068204008 8
0.45494735 3.9021776 0.20588967 6
0.45357686 3.8786526 0.34165049 5
0.45074278 3.8485949 0.47577798 2
0.45951033 3.9175212 -0.48430881 2
0.44572502 3.7942882 0.60508859 1
0.45675001 3.8822923 -0.34199914 3
0.44502416 3.782625 0.74033892 4
0.45784625 3.8857503 -0.2050523 2
0.44395819 3.7622473 0.87460971 4
0.45835268 3.8784151 -0.068169102 3
0.43074217 3.6393206 0.98195946 100
0.45207962 3.7744439 0.066354051 2
0.45522678 3.7895174 0.20002805 1
0.45073095 3.7465708 0.33014596 5
0.45157203 3.7425456 0.46285981 13
0.46079817 3.8134139 -0.47163439 1
0.45327231 3.7456436 0.59757972 12
0.45975304 3.7936461 -0.33432943 2
0.45043173 3.7167315 0.72774553 12
0.45504317 3.7493041 -0.1979346 5
0.45497301 3.743264 0.87056059 14
0.45328417 3.7239428 -0.065481432 16
0.44437745 3.6454656 0.98403007 100
0.45864335 3.7192571 0.06541162 15
0.46060678 3.7244761 0.19667853 13
0.4632346 3.7350068 0.32927439 22
0.46585581 3.7507966 0.46407849 21
0.46528527 3.7408655 -0.46285981 9
0.46390367 3.724436 0.59445107 18
0.46337402 3.7149122 -0.32753128 17
0.46624225 3.7325888 0.73118013 12
0.4680393 3.7416658 -0.1976206 37
0.46893111 3.743505 0.87101048 13
0.46777093 3.7342434 -0.06569086 42
0.45613891 3.6362245 0.98195946 100
0.47403708 3.7314372 0.065655954 36
0.47677773 3.7425756 0.19772527 24
0.47551221 3.7274382 0.32875144 22
0.48035666 3.7549708 0.46480972 15
0.47975081 3.7450418 -0.46359101 9
0.48006392 3.7423041 0.59757972 19
0.47735372 3.7211771 -0.32822853 25
0.47951791 3.7328856 0.73156172 13
0.48135132 3.7419901 -0.19772527 39
0.48274341 3.7476435 0.87236023 12
0.47940886 3.7166376 -0.06541162 42
0.46822509 3.6249487 0.97937131 100
0.48343346 3.7019999 0.065167286 33
0.49061778 3.7468295 0.19803928 25
0.4890396 3.7297065 0.32910007 22
0.49268395 3.7473669 0.46407849 13
0.49308059 3.7453125 -0.46383476 6
0.49183232 3.7308135 0.59601539 14
0.49033934 3.7194881 -0.32822853 22
0.48432252 3.6689057 0.71934998 6
0.4954583 3.7482071 -0.19814396 24
0.48764041 3.6841149 0.85796332 9
0.49448058 3.7308004 -0.06569086 19
0.48214746 3.6328676 0.98195946 100
0.49608627 3.698308 0.06513238 8
0.49916887 3.7114434 0.19625986 4
0.49221414 3.6549182 0.32265055 5
0.49513742 3.6669345 0.45432895 11
0.50189304 3.7120938 -0.45993495 1
0.49372268 3.646858 0.58287489 12
0.5019843 3.7078819 -0.32735696 6
0.49449015 3.647738 0.71553379 13
0.49940261 3.6791654 -0.1945851 5
0.49367288 3.6321847 0.84626585 11
0.49860269 3.6636643 -0.064539 9
0.49534476 3.6349909 0.98299474 100
0.50108331 3.6391046 0.064120144 25
0.50228775 3.6384528 0.19249167 15
0.50469738 3.6512043 0.32247624 13
0.50466365 3.6415884 0.45140409 13
0.5061177 3.6473992 -0.45213532 5
0.50563508 3.6392426 0.5819363 15
0.50861889 3.660718 -0.32334781 18
0.50262052 3.6129327 0.70904624 12
0.51141655 3.6714649 -0.19427109 48
0.50527275 3.622719 0.84446627 13
0.50862169 3.642097 -0.064189956 49
0.50829875 3.6351528 0.9835124 100
0.51175261 3.6275225 0.063945621 32
0.51323098 3.6288569 0.19207297 15
0.51373053 3.6278105 0.32055882 23
0.51506203 3.6281025 0.44994166 13
0.51541758 3.6260471 -0.44969791 5
0.51380301 3.6101665 0.57755613 16
0.51542079 3.6215334 -0.32003587 21
0.51487494 3.6131897 0.70942789 13
0.518794 3.6361358 -0.19249167 34
0.51783377 3.624882 0.84536606 12
0.51531613 3.6027787 -0.063526757 33
0.52117318 3.6391842 0.98506534 100
0.52011561 3.5960276 0.063422047 33
0.52446294 3.6171601 0.19154961 25
0.5252434 3.6181085 0.31986156 31
0.52943951 3.6380689 0.45140409 21
0.52692777 3.6163685 -0.44872296 6
0.52725643 3.6142151 0.57849473 18
0.52518225 3.599997 -0.31829277 21
0.52776885 3.613313 0.70980954 12
0.52975023 3.6224453 -0.19186363 30
0.53076541 3.6249807 0.84581596 13
0.52818006 3.6029365 -0.063561663 31
0.53219086 3.6258743 0.98195946 100
0.53178644 3.5882561 0.063317336 32
0.53825921 3.6232097 0.19196831 25
0.53493959 3.5965457 0.31811845 24
0.54008567 3.6224549 0.44969791 24
0.54071784 3.6223607 -0.44969791 7
0.5392862 3.6084449 0.577869 19
0.53862983 3.6040533 -0.31881571 25
0.53921568 3.6036825 0.70828301 11
0.5417974 3.6166239 -0.19165429 35
0.54486197 3.6327417 0.8480655 12
0.54223913 3.6109583 -0.063736185 33
0.54484177 3.6239948 0.98195946 100
0.54610986 3.5982399 0.063526757 31
0.55210572 3.6292069 0.19238698 21
0.55109149 3.6182926 0.32021019 25
0.55242848 3.6185851 0.44945419 16
0.55395979 3.6243758 -0.45018539 9
0.55307311 3.6143513 0.57912046 19
0.55180901 3.6060903 -0.31916434 22
0.55119789 3.5978971 0.70751977 12
0.55260265 3.6028655 -0.19102626 30
0.55753851 3.6308179 0.8480655 15
0.5554474 3.6129966 -0.063805997 33
0.5592528 3.6335273 0.98506534 100
0.56020075 3.6061916 0.063701279 31
0.56231344 3.6114695 0.19154961 22
0.56555879 3.6281588 0.32125604 27
0.56597662 3.6225188 0.45018539 22
0.56445962 3.6086912 -0.44847921 9
0.56965846 3.6377697 0.58318776 36
0.56593376 3.6139843 -0.32003587 25
0.56801152 3.6231043 0.71286243 55
0.56765234 3.6166997 -0.19186363 28
0.5674352 3.6070848 -0.063736185 33
0.57403582 3.6449113 0.98868877 100
0.57435554 3.6140885 0.063875809 55
0.57585812 3.615402 0.19186363 50
0.57759345 3.6222272 0.32090744 73
0.5805037 3.6282606 -0.45116034 18
0.58204162 3.6338081 0.58287489 86
0.57949173 3.6178885 -0.32055882 52
0.58376276 3.6404848 0.71667862 83
0.58217394 3.626528 -0.19249167 79
0.58565575 3.6441531 0.85211456 90
0.58097494 3.6110051 -0.063840903 100
0.58460599 3.6295342 0.98506534 100
0.58632535 3.6081142 0.063805997 100
0.59200549 3.6350541 0.19301502 100
0.59183615 3.6300213 0.32177898 105
0.59632045 3.6535106 -0.58631647 2
0.59509236 3.6419888 0.45311025 100
0.59444785 3.6340482 -0.45213532 47
0.59440249 3.6298051 0.58256203 103
0.59179425 3.6138775 -0.3203845 100
0.5936076 3.6209886 0.71324408 88
0.596771 3.6362989 -0.19311969 100
0.59900379 3.6459329 0.85301441 93
0.59454912 3.6148748 -0.063945621 100
0.59727287 3.6274714 0.98506534 100
0.59891737 3.6060455 0.063805997 100
0.60600144 3.6408463 0.1934337 100
0.60221237 3.614176 0.32055882 105
0.60452074 3.6241286 -0.5819363 4
0.60714698 3.6359732 0.45262277 100
0.60941976 3.6456568 -0.45384148 51
0.60446197 3.6121218 0.58005905 97
0.60440636 3.6117897 -0.3203845 100
0.60429668 3.6072767 0.71095431 91
0.60747766 3.6223752 -0.19249167 100
0.61172777 3.6438196 0.85301441 90
0.60882175 3.6226375 -0.064120144 100
0.61057168 3.6291747 0.98610061 100
0.61150038 3.6039331 0.063805997 100
0.61573148 3.6250331 0.19270101 100
0.61616111 3.6199086 0.32125604 109
0.61783046 3.6258907 -0.58256203 8
0.61883485 3.6279612 0.45189157 100
0.61850107 3.6260045 -0.45164782 58
0.61743367 3.6159394 0.58099771 87
0.61835229 3.6175139 -0.32108176 100
0.61854124 3.6148207 0.71286243 96
0.61876881 3.6123583 -0.19207297 100
0.62446505 3.6456127 0.8539142 90
0.62150675 3.6245406 -0.064189956 100
0.62358284 3.6328423 0.98765355 100
0.62583649 3.6156781 0.064050332 100
0.62706649 3.6190357 0.19249167 100
0.63088942 3.6335492 0.32265055 103
0.63154161 3.6335535 -0.58412635 13
0.63324511 3.6395788 0.45359772 97
0.63052297 3.6239333 -0.45164782 65
0.63213366 3.6294403 0.58350062 100
0.63171309 3.6232944 -0.32177898 100
0.63153869 3.618552 0.71400726 85
0.63280779 3.6220913 -0.19270101 100
0.63521034 3.6358428 0.85211456 93
0.63214397 3.6145806 -0.064050332 100
0.63662678 3.6364627 0.98920643 100
0.63886338 3.6194909 0.064155042 100
0.64073992 3.6227248 0.19280569 100
0.6629979 3.7485707 -0.73995733 1
0.6411978 3.621628 0.32177898 113
0.64634615 3.6469996 -0.58662933 15
0.64704388 3.6472321 0.45481643 100
0.64455658 3.6295283 -0.45262277 73
0.64099514 3.605818 0.58005905 97
0.64365977 3.6171441 -0.32143039 100
0.64662969 3.6338339 0.71744186 96
0.64481491 3.6199729 -0.19270101 100
0.64926553 3.6412776 0.8539142 90
0.6440556 3.6084146 -0.06398052 100
0.64999712 3.6380219 0.99024171 100
0.65007704 3.6093667 0.064015426 100
0.65586388 3.6342249 0.19353838 100
0.66486543 3.6804283 -0.7269823 1
0.65269566 3.6094503 0.32090744 105
0.65724504 3.6309996 -0.58443922 19
0.66083115 3.6508114 0.45554763 100
0.65722132 3.6272564 -0.45262277 78
0.65428382 3.6074455 0.58068478 100
0.6548593 3.6070335 -0.32073313 100
0.65889001 3.6256447 0.71629703 91
0.65950918 3.6254451 -0.19311969 100
0.66470265 3.6503763 0.85661358 87
0.65808129 3.6140137 -0.064120144 100
0.66130394 3.6281288 0.9881711 100
0.66257757 3.6030266 0.063945621 100
0.66926986 3.6358416 0.19374773 100
0.6727289 3.6510541 -0.72163963 1
0.66673404 3.6149879 0.32160467 105
0.67027515 3.6306255 -0.58475208 28
0.67240489 3.6386044 0.45432895 100
0.6715939 3.6306796 -0.453354 86
0.66866618 3.6148524 0.58224916 100
0.66817099 3.6086442 -0.32108176 100
0.67011178 3.6156011 0.71477056 91
0.67070067 3.6152666 -0.19270101 100
0.67886323 3.6556981 0.85841322 84
0.67178708 3.6175928 -0.064224854 100
0.67431849 3.6276975 0.98868877 100
0.67599571 3.6086714 0.064085238 100
0.68011606 3.6236682 0.19322437 100
0.68546855 3.6486838 -0.72163963 3
0.67971778 3.6145966 0.32177898 100
0.68121511 3.6225588 -0.58381349 41
0.68483543 3.6383052 0.45457271 100
0.68252832 3.6225798 -0.45262277 88
0.68274564 3.6202605 0.58350062 100
0.68298185 3.6180363 -0.32212761 100
0.6813705 3.6095004 0.71400726 91
0.68268657 3.6130223 -0.19270101 100
0.68880862 3.6419382 0.85571378 87
0.6847837 3.6171904 -0.06425976 100
0.688775 3.6348124 0.99127698 100
0.69046438 3.6161103 0.06425976 102
0.69200778 3.6173489 0.19301502 100
0.69608802 3.6386776 -0.72011316 6
0.69432437 3.62602 0.32299918 109
0.69608814 3.6317995 -0.58569074 57
0.69715482 3.6339436 0.45432895 100
0.69442159 3.616276 -0.45213532 88
0.69463378 3.6139755 0.58287489 100
0.69786292 3.6273696 -0.32317349 100
0.69693059 3.6225235 0.71706021 91
0.6975612 3.6223843 -0.19332905 100
0.70078045 3.6356845 0.85481399 74
0.69740337 3.6147788 -0.06425976 100
0.70439005 3.6475599 0.99541807 100
0.70270008 3.6117156 0.064224854 100
0.70539576 3.6188319 0.19322437 100
0.7086705 3.6322474 -0.71934998 10
0.70760894 3.623451 0.32299918 103
0.70939386 3.6292241 -0.58569074 61
0.71288294 3.6470737 0.45627886 69
0.70856607 3.6216226 -0.45311025 88
0.70534575 3.601836 0.58131051 43
0.70822209 3.6131804 -0.32212761 100
0.70944983 3.6160913 0.71629703 16
0.71160215 3.6237233 -0.19353838 100
0.70924675 3.6083977 -0.064189956 100
0.7148816 3.6337056 0.99231225 100
0.71515566 3.6051927 0.064155042 50
0.71996754 3.626143 0.19374773 29
0.72440404 3.6451571 -0.72240293 10
0.7216714 3.624788 -0.58537781 34
0.72546864 3.6405427 0.45579138 20
0.72352886 3.6308086 -0.45457271 38
0.71830159 3.601289 0.58162344 15
0.71693057 3.5911477 -0.3203845 37
0.72168082 3.6116679 0.71591538 13
0.72424793 3.621217 -0.19353838 35
0.72576302 3.6287925 0.8543641 12
0.72066146 3.6000175 -0.064085238 34
0.7264201 3.6255062 0.99075931 100
0.72552395 3.5949607 0.064015426 32
0.73080289 3.617862 0.1934337 24
0.73765606 3.6485076 -0.72354776 6
0.73067605 3.6107395 0.32230192 24
0.72976732 3.6030142 -0.58224916 16
0.73438287 3.6225526 0.45384148 16
0.7339884 3.6206069 -0.45359772 22
0.73495299 3.6221185 0.58537781 15
0.73121381 3.600466 -0.32143039 26
0.73130816 3.5977116 0.71362567 12
0.73306608 3.6031382 -0.19270101 31
0.73818034 3.6282756 0.85481399 13
0.73419088 3.6054459 -0.064224854 30
0.73998296 3.6306489 0.99282992 100
0.73744226 3.592535 0.064015426 27
0.74382871 3.6172457 0.19353838 22
0.75078398 3.6478331 -0.72392935 6
0.7438516 3.6141508 0.32282487 23
0.74290627 3.6063788 -0.58318776 15
0.74679166 3.6220415 0.4540852 23
0.74582076 3.6141343 -0.45311025 14
0.74799091 3.6214659 0.58569074 18
0.74498659 3.6037452 -0.32195333 23
0.74505639 3.6009045 0.71477056 14
0.74725825 3.6083806 -0.19311969 22
0.75123537 3.6275854 0.85526395 12
0.74880201 3.6126511 -0.064399377 33
0.75383008 3.6337183 0.99438286 100
0.75305939 3.601552 0.064224854 36
0.75585413 3.6086302 0.19322437 28
0.76173115 3.633528 -0.72163963 7
0.75872755 3.6192005 0.32352212 25
0.7585541 3.6152313 -0.58506501 16
0.76006305 3.6192799 0.4540852 18
0.7586531 3.6094339 -0.45286649 19
0.76451337 3.6341643 0.58819366 20
0.76065385 3.6126881 -0.32299918 25
0.76108241 3.6115971 0.71744186 12
0.75965518 3.6017087 -0.19291034 27
0.76694 3.6362479 0.85796332 12
0.76162422 3.6079261 -0.064364478 31
0.77033716 3.6460519 0.99852395 100
0.76667035 3.600724 0.06425976 28
0.7699095 3.6097422 0.1934337 16
0.7719537 3.6193266 -0.71934998 9
0.77281851 3.6202924 0.32387072 24
0.77303863 3.6182218 -0.5860036 17
0.77996576 3.6475291 0.45798501 15
0.7727074 3.6105118 -0.453354 18
0.77865654 3.6352007 0.58881938 12
0.77367812 3.611959 -0.32317349 25
0.79549688 3.7106586 0.73766762 11
0.77473611 3.6107523 -0.19353838 22
0.80235779 3.7362988 0.88225806 12
0.77400339 3.6012001 -0.064294666 34
0.78125703 3.6318724 0.99541807 100
0.78897071 3.6429765 0.065062575 20
0.80282933 3.7007222 0.19845797 13
0.7933228 3.6569009 -0.72736394 9
0.80658901 3.7149239 0.33258632 15
0.79530913 3.6598997 -0.59319955 15
0.81589538 3.7514706 0.47139066 15
0.79670626 3.6601634 -0.45993495 13
0.81362557 3.7347562 0.60540146 12
0.7956109 3.6520643 -0.32700834 17
1.3738945 6.3012509 1.2536151 9
0.81245947 3.7231548 -0.19971403 15
1.3800579 6.3189211 1.4932251 35
0.81005448 3.7059231 -0.066214427 16
0.79393083 3.629123 0.99541807 100
0.81974512 3.7222223 0.066528574 20
0.82692963 3.7486067 0.20117943 13
0.82553816 3.7422991 -0.74491841 15
1.3942671 6.3152146 0.56581503 38
0.82342392 3.7265394 -0.6044628 15
1.3973608 6.3187351 0.79458821 34
0.82835191 3.7426403 -0.47065943 14
0.82601994 3.7290196 -0.33415511 15
0.83020884 3.7417445 -0.20086543 16
1.4075972 6.3387976 1.4990739 118
1.4012897 6.3051791 -0.11274255 19
0.8074339 3.6301007 0.99645334 100
1.4125023 6.3088241 0.11284725 100
1.4142888 6.3064923 0.33871832 100
1.1938789 5.323657 -1.0605165 2
1.416741 6.3122535 0.56598938 100
1.4172274 6.3041358 0.79336947 72
1.4183306 6.3038878 -0.79336947 99
1.4246341 6.3267484 1.0271488 100
1.4180834 6.297657 -0.56476921 100
1.4213021 6.3068285 1.2566681 86
1.4202373 6.2969661 -0.33829966 100
1.4297168 6.3338447 1.4990739 134
1.4228454 6.2982993 -0.11270764 72
0.82350779 3.6423347 1.0005945 100
1.431855 6.2921562 0.11263783 100
1.4347522 6.2998195 0.33861366 100
1.2124561 5.3194566 -1.0605165 3
1.439654 6.3111539 0.566338 100
1.2670954 5.5502372 -0.9016884 4
1.4427632 6.3146324 0.79531944 76
1.4372308 6.2853522 -0.79166335 57
1.4416453 6.3046579 1.024333 100
1.437834 6.2829576 -0.56389767 63
1.4472547 6.3190517 1.2601026 102
1.4417646 6.2900224 -0.338195 100
1.4496374 6.3193188 1.4968243 134
1.4414898 6.2838011 -0.11253312 80
0.83817464 3.6508815 1.0037004 100
1.4549593 6.2971158 0.11281236 100
1.4580865 6.3006101 0.33892769 100
1.2296896 5.309454 -1.0593716 4
1.4625708 6.3099732 0.56668663 100
1.2872769 5.5537024 -0.90293986 2
1.4672858 6.3252826 0.79726928 75
1.4636396 6.2995882 1.024333 100
1.4699817 6.321866 1.2616292 104
1.4671407 6.3046603 -0.33924171 100
1.4732358 6.3258648 1.4995238 136
1.4647789 6.2845731 -0.11263783 87
0.84740371 3.6328824 0.99955922 100
1.4764761 6.2900515 0.11277745 100
1.0539826 4.4866343 -1.0640185 1
1.4818949 6.3032603 0.33934638 100
1.2463874 5.3015256 -1.0586084 4
1.483489 6.305088 0.56668663 100
1.3075621 5.55302 -0.90356559 2
1.4902625 6.323988 0.79775679 73
1.430311 6.064827 -0.76509583 9
1.4860756 6.2963629 1.0246458 100
1.4279352 6.0500274 -0.54385179 13
1.493847 6.3243384 1.2631556 102
1.4900568 6.3033881 -0.33945104 100
1.4971044 6.3282685 1.5013233 136
1.4885516 6.2872047 -0.11277745 85
0.85829729 3.6223831 0.99748862 100
1.4979614 6.2829142 0.11274255 100
1.0696365 4.4829278 -1.0640185 1
1.5066735 6.3097048 0.3399744 100
1.2612392 5.2818656 -1.0555553 4
1.5064168 6.3037467 0.56703526 100
1.333369 5.5753188 -0.90794575 2
1.513254 6.322608 0.79824424 75
1.4385267 6.005743 -0.7582711 11
1.513109 6.3122683 1.0280875 100
1.4337174 5.9810691 -0.53809953 13
1.5131618 6.3076324 1.2608659 104
1.5120523 6.2981482 -0.33945104 100
1.5223706 6.3362684 1.5044726 138
1.5123547 6.2897491 -0.11291707 85
0.87545711 3.6381471 1.002665 100
1.5217617 6.2854218 0.11288217 100
1.0852796 4.4791665 -1.0640185 1
1.5296322 6.3082886 0.34018376 100
1.2792073 5.2755227 -1.0551738 4
1.5316995 6.3120041 0.56825542 100
1.355621 5.5821481 -0.909823 2
1.5353165 6.3172865 0.79824424 75
1.4407153 5.9235311 -0.74852157 11
1.5370041 6.3146253 1.029339 100
1.4371538 5.9044003 -0.53165001 15
1.5370306 6.3099413 1.2623924 102
1.5326073 6.2870111 -0.33913705 100
1.5426333 6.3233423 1.502673 135
1.5376225 6.2980289 -0.1131614 78
0.88998455 3.6425757 1.0047356 100
1.5470356 6.2936649 0.1131265 100
1.0943923 4.4488583 -1.0577198 1
1.5497317 6.2951531 0.33976504 100
1.2994906 5.2786503 -1.0567002 5
1.5561048 6.3162913 0.56912696 100
1.4394095 5.838222 -0.95237315 11
1.5587839 6.3176708 0.79897547 72
1.4404442 5.8336692 -0.73779708 14
1.5585647 6.307303 1.029026 100
1.446764 5.8548608 -0.52764088 18
1.5618734 6.3159728 1.2646821 104
1.557901 6.2951941 -0.33986974 100
1.5642296 6.3160272 1.5022231 134
1.5576718 6.2848601 -0.11302178 82
0.90548384 3.6506975 1.0078415 100
1.5718985 6.2998676 0.11333593 100
1.10897 4.4412298 -1.0568202 1
1.5730199 6.2996678 0.34028843 100
1.3169582 5.2702732 -1.0559371 4
1.5781449 6.3108206 0.56912696 100
1.449708 5.7929206 -0.94580293 18
1.5837224 6.3237453 0.80043793 72
1.4501833 5.786243 -0.73243481 16
1.5813916 6.3097649 1.0302775 104
1.4516807 5.7879338 -0.5220629 20
1.5886919 6.329524 1.2684983 83
1.5842466 6.3071508 -0.34081176 100
1.5900664 6.3256483 1.5058223 134
1.5794814 6.2835383 -0.1130916 82
0.91475827 3.6364336 1.0047356 100
1.5913111 6.2888045 0.11323121 100
1.1227338 4.4337502 -1.0559202 1
1.5974519 6.3038192 0.34081176 100
1.3372761 5.2732563 -1.0574635 4
1.5996728 6.3033428 0.56895268 100
1.4645357 5.7708492 -0.94298708 63
1.6056601 6.3223066 0.80092543 72
1.4688731 5.779479 -0.73219109 68
1.6034058 6.3042068 1.0302775 100
1.4625368 5.7461462 -0.51875097 60
1.6116084 6.3318315 1.2700247 102
1.6046618 6.2999268 -0.34070709 100
1.6148837 6.3354478 1.5094216 125
1.603381 6.285738 -0.11323121 78
0.9274472 3.6332181 1.0047356 100
1.613255 6.2832108 0.11323121 100
1.1333553 4.4109292 -1.0514213 1
1.6239216 6.3156142 0.34175381 100
1.3645325 5.3068209 -1.0650959 4
1.6195754 6.2941437 0.56860405 100
1.4782686 5.7408328 -0.93891978 45
1.6287085 6.320508 0.80141288 72
1.4860656 5.7627826 -0.73072863 54
1.6293521 6.3138723 1.0327804 100
1.4845773 5.7487226 -0.51944822 62
1.6317359 6.3185639 1.2684983 102
1.6276412 6.2981553 -0.34091645 100
1.638942 6.3373184 1.5112212 120
1.6283175 6.2917185 -0.11344065 82
0.94206053 3.6374393 1.0068061 100
1.6366886 6.2833467 0.11333593 100
1.143829 4.3880892 -1.0469222 1
1.6449507 6.3060417 0.34154451 100
1.3720745 5.2561936 -1.0559371 5
1.6501858 6.3170815 0.57121873 100
1.5002978 5.7391992 -0.93954557 51
1.6507629 6.314784 0.80141288 70
1.5051665 5.7537193 -0.73024112 36
1.6553825 6.3234348 1.0352834 100
1.5086758 5.7589235 -0.52084273 75
1.6568768 6.320137 1.2700247 102
1.6507127 6.2921476 -0.34091645 100
1.6626519 6.3331542 1.5116711 65
1.6523025 6.2937326 -0.11358026 82
0.95769799 3.6453393 1.009912 100
1.663798 6.2927713 0.11361516 100
1.1599057 4.3838673 -1.0469222 1
1.6669548 6.300261 0.34154451 100
1.3984524 5.2817383 -1.062043 5
1.6737592 6.3170605 0.5717417 100
1.528424 5.7644768 -0.94455141 100
1.6759317 6.3163667 0.80238777 70
1.5247179 5.7424078 -0.72950995 51
1.6754192 6.3099804 1.0340319 100
1.5297939 5.7574735 -0.52119136 75
1.6809447 6.3219051 1.2715513 102
1.6757493 6.2979274 -0.34154451 100
1.683246 6.3216619 1.5103214 50
1.6742634 6.2879262 -0.11358026 78
0.97140902 3.6457078 1.0109472 100
1.0294999 3.8421464 -1.0658169 1
1.6867254 6.2949457 0.11375479 100
1.1754431 4.3837614 -1.047822 3
1.6930759 6.3098364 0.34238186 100
1.4077178 5.2426944 -1.0551738 5
1.6947639 6.3073306 0.57139301 100
1.5475301 5.759377 -0.94455141 42
1.7009938 6.3261099 0.80433774 72
1.5452985 5.7430711 -0.73024112 24
1.6974367 6.3040929 1.0340319 100
1.548844 5.7482505 -0.52084273 95
1.7054768 6.329565 1.2742226 79
1.6987033 6.3000493 -0.34196317 100
1.707248 6.3273335 1.5130208 38
1.6977646 6.2878356 -0.11368498 87
0.98513776 3.6460247 1.0119824 100
1.0300878 3.7939668 -1.0533936 1
1.709736 6.2928796 0.1138246 100
1.1907392 4.3796315 -1.047822 3
1.7150928 6.3038874 0.34238186 100
1.4240662 5.2342081 -1.0544106 4
1.7172396 6.3074441 0.57191598 100
1.5484111 5.6834216 -0.93297523 12
1.725678 6.3297091 0.80555642 75
1.5465257 5.6686983 -0.72146654 15
1.7215084 6.3057532 1.0352834 100
1.5715692 5.7565374 -0.5220629 85
1.7265277 6.3197851 1.2734593 71
1.7248994 6.3094935 -0.34280053 81
1.7344619 6.3401337 1.5175198 30
1.7239285 6.2972999 -0.11396421 90
0.99479735 3.6313844 1.0088767 100
1.0433224 3.7903485 -1.0533936 1
1.7306312 6.2830167 0.11375479 100
1.202914 4.3641763 -1.0451226 3
1.7423934 6.3171172 0.34342858 100
1.4548529 5.2746282 -1.0635694 4
1.7418984 6.3110142 0.57278752 100
1.5461541 5.5980101 -0.91983473 12
1.7467003 6.3198214 0.80506897 73
1.5488431 5.6001277 -0.71342319 22
1.7466723 6.3111281 1.0371606 100
1.5911239 5.7490959 -0.52188861 75
1.744381 6.2985849 1.2704064 71
1.7501124 6.3149829 -0.34342858 100
1.7591882 6.34343 1.5197693 23
1.7421521 6.2777572 -0.11371988 34
1.0121186 3.6446426 1.0135354 100
1.0503175 3.7643538 -1.0471818 1
1.7568563 6.2923455 0.11403403 100
1.2181396 4.359951 -1.0451226 3
1.7633338 6.3113041 0.34342858 100
1.4722002 5.2657356 -1.0628061 5
1.7649926 6.308732 0.57313615 100
1.5550333 5.5545344 -0.91357738 14
1.7687515 6.3136854 0.80506897 76
1.5571308 5.5545473 -0.7083047 18
1.7713255 6.3186154 1.0393507 100
1.6144099 5.7550173 -0.52293444 78
1.7695419 6.3037982 1.2726961 71
1.7527022 6.2396131 -0.33966038 20
1.7802641 6.3334985 1.5188695 11
1.743482 6.202642 -0.11246331 10
1.0252445 3.6449854 1.0145707 100
1.0613494 3.7532284 -1.0451113 1
1.7798882 6.2941828 0.11417364 100
1.2315289 4.3521376 -1.0442228 3
1.7842668 6.3012657 0.34321922 100
1.4948552 5.2756753 -1.0658592 5
1.7908034 6.3159513 0.57435632 100
1.5626662 5.5113382 -0.90732002 23
1.7940152 6.3230624 0.80701888 76
1.5609022 5.4977937 -0.70172375 31
1.7944459 6.3161955 1.0399765 100
1.6393938 5.7665944 -0.52450323 70
1.7936591 6.3092251 1.2749858 71
1.7433252 6.1281095 -0.33390343 16
1.8060575 6.344429 1.5229187 5
1.7338977 6.0868959 -0.11047374 19
1.0411401 3.6525314 1.0176765 100
1.0759164 3.7571173 -1.0471818 3
1.8062537 6.3033104 0.11445288 100
1.2467142 4.3478117 -1.0442228 3
1.8106571 6.3103585 0.34405661 100
1.5275018 5.3235283 -1.0765444 9
1.8117398 6.3099775 0.57435632 100
1.5829873 5.5096464 -0.90794575 53
1.8182715 6.3243923 0.80799377 75
1.5855707 5.5113893 -0.70416111 53
1.8164843 6.3098927 1.0399765 100
1.6584115 5.7570076 -0.52415466 26
1.8200208 6.318018 1.2780387 73
1.7530875 6.081686 -0.33170533 56
1.0655916 3.6942518 0.88765687 5
1.7562449 6.0846481 -0.11054354 53
1.0533466 3.6470194 1.0171589 100
1.0864489 3.7420173 -1.0440761 3
1.827132 6.2931256 0.11438307 100
1.26297 4.3471766 -1.0451226 3
1.8332295 6.3059177 0.34416127 100
1.5464565 5.3160086 -1.0761628 10
1.8342966 6.3013821 0.57418203 100
1.6009595 5.496222 -0.90669429 48
1.8447737 6.3332553 0.80994374 76
1.6031343 5.500103 -0.70342994 42
1.840157 6.3092027 1.040915 100
1.8420631 6.3075356 1.2772754 73
1.7787291 6.0867214 -0.33233336 62
1.0829542 3.7034142 0.8908062 5
1.7757887 6.0727229 -0.11043882 42
1.0655291 3.6414659 1.0166413 100
1.0984132 3.7344954 -1.0430408 3
1.8501838 6.286387 0.11438307 100
1.2788957 4.3425179 -1.0451226 3
1.8597186 6.3106508 0.34478933 100
1.5716617 5.3331766 -1.0807421 10
1.8591007 6.3044958 0.57505357 100
1.6201366 5.4905996 -0.90669429 46
1.866289 6.3207393 0.80921251 78
1.6277809 5.5094204 -0.70537978 42
1.8666309 6.3137813 1.0427923 100
1.6991247 5.7472005 -0.52432895 26
1.8629541 6.2973027 1.2765123 73
1.797696 6.0728154 -0.33191466 62
1.0919999 3.686532 0.88765687 5
1.7997378 6.0719256 -0.11054354 40
1.0805159 3.6430929 1.0181942 100
1.1114415 3.7306385 -1.0430408 3
1.8755455 6.291388 0.11459251 100
1.2929311 4.3342924 -1.0442228 3
1.882877 6.3079491 0.34499866 100
1.5863366 5.3144894 -1.0780709 9
1.8845191 6.3094215 0.57609946 100
1.641554 5.4924817 -0.90794575 46
1.8877741 6.312284 0.80896878 75
1.647573 5.5056062 -0.70562357 44
1.8903573 6.3129048 1.0437309 100
1.743179 5.8213983 -0.53165001 26
1.8888707 6.3039255 1.2791836 78
1.8183109 6.0645895 -0.33181 62
1.1026208 3.6752319 0.88585728 5
1.8232235 6.0732675 -0.11068317 38
1.0948943 3.6448491 1.0197471 100
1.1266904 3.7341337 -1.0451113 3
1.8998055 6.29246 0.11473212 100
1.3091811 4.3334842 -1.0451226 3
1.9037863 6.3016701 0.34499866 100
1.6082879 5.3201952 -1.0803605 9
1.9105685 6.316155 0.57731962 100
1.6647238 5.4999523 -0.91013581 46
1.9126723 6.3151555 0.81018746 78
1.6662042 5.4979224 -0.70537978 42
1.9130018 6.3122725 1.0446695 100
1.7484573 5.7657046 -0.52711791 28
1.914283 6.3085661 1.2814733 78
1.8446903 6.0754061 -0.33275205 53
1.1137445 3.6657667 0.88450754 6
1.8439332 6.0691018 -0.11071807 42
1.1103457 3.6522882 1.0228529 100
1.1397172 3.7301784 -1.0451113 3
1.9241666 6.2976007 0.11494155 100
1.3235434 4.3291192 -1.0451226 3
1.9281074 6.3026257 0.34541735 100
1.6245493 5.3070402 -1.0788342 7
1.9343563 6.3151617 0.57784253 100
1.6858472 5.5038452 -0.91170013 51
1.938259 6.3239613 0.81213742 73
1.6896641 5.5094476 -0.70757347 47
1.9327077 6.2980022 1.043418 100
1.7112595 5.5729136 -0.5100354 27
1.9415336 6.3228273 1.2856711 77
1.8554401 6.0387087 -0.33107728 15
1.1293316 3.673229 0.88720697 8
1.8639325 6.0588045 -0.11064825 44
1.123087 3.6483903 1.0228529 100
1.1452343 3.7042305 -1.0388998 6
1.9485029 6.2984867 0.11508117 100
1.3409508 4.3319192 -1.0469222 4
1.9537205 6.3114614 0.34625471 100
1.6403981 5.2959971 -1.0776893 6
1.952927 6.3011007 0.57714534 100
1.7056303 5.499815 -0.91201305 48
1.9632623 6.3266368 0.81335604 76
1.7112414 5.5110984 -0.70854843 49
1.9565096 6.3009911 1.0449823 100
1.9624254 6.3122621 1.2849078 82
1.760229 5.6584015 -0.3105616 15
1.1438835 3.6748469 0.88855666 9
1.8869845 6.0621376 -0.11082278 40
1.1340315 3.6409569 1.0218177 100
1.1616209 3.7112718 -1.0420054 6
1.9657967 6.2805395 0.11487174 100
1.3518152 4.3162899 -1.0442228 3
1.9805195 6.3198495 0.34709209 100
1.6653374 5.3108444 -1.081887 6
1.9796807 6.309454 0.57853985 100
1.726226 5.501667 -0.91326451 48
1.98423 6.3200917 0.81335604 76
1.7330788 5.5167565 -0.71001083 47
1.9832295 6.3091989 1.0474852 100
1.8167018 5.7759037 -0.52973258 36
1.9833456 6.3057208 1.2849078 79
1.7873789 5.6792045 -0.31202701 7
1.1589895 3.6803274 0.8908062 10
1.9135416 6.0726795 -0.11113693 42
1.1478966 3.6406605 1.0228529 100
1.1717119 3.6959405 -1.0388998 6
1.9959426 6.292006 0.11522079 100
1.3671983 4.307353 -1.0433229 3
2.0024595 6.3087406 0.34688276 100
1.6907332 5.3234172 -1.0857033 7
2.0070181 6.3154464 0.57976002 100
1.7503297 5.5044107 -0.91482884 48
2.0102899 6.3181009 0.81408727 78
1.7554519 5.5138445 -0.71049833 51
2.0087395 6.3094168 1.0487368 100
1.8166916 5.7027636 -0.52363169 21
2.011122 6.3092809 1.2871976 86
1.9171993 6.0110016 -0.33065861 21
1.1707416 3.6684244 0.88900656 10
1.9394325 6.0770555 -0.11134635 36
1.1647578 3.647471 1.0259588 100
1.1893288 3.7065434 -1.0430408 6
2.0204644 6.2967772 0.11543022 100
1.3790929 4.2953734 -1.0415233 3
2.0256927 6.3055158 0.34709209 100
1.708105 5.313745 -1.0849401 7
2.0302696 6.3121958 0.58010858 100
1.7715993 5.5079784 -0.91639322 53
2.03427 6.3208489 0.81530601 76
1.7749454 5.5117717 -0.71098578 47
2.0337791 6.3117681 1.0503011 100
1.8371997 5.6982832 -0.52380598 21
2.0338392 6.3081837 1.2883424 83
1.1805066 3.6571035 0.88720697 11
1.9600205 6.0683455 -0.11131145 31
1.1804543 3.6525738 1.0285469 100
1.2022074 3.7044175 -1.0435584 6
2.0455155 6.2991972 0.11560474 100
1.3952837 4.29424 -1.0424232 4
2.0513942 6.3098025 0.34772015 100
1.7323899 5.3285894 -1.0891378 9
2.0530384 6.3111134 0.58063155 100
1.7963191 5.5186658 -0.91920906 51
2.0600116 6.3250332 0.81676841 76
1.7966309 5.5130935 -0.71196079 38
2.0551882 6.3027511 1.0499883 100
1.8307631 5.6144953 -0.51665926 5
2.062547 6.3215756 1.2925402 86
1.9791422 6.062367 -0.33421743 55
1.1968966 3.6640744 0.88990635 11
1.9861629 6.0766726 -0.11159069 46
1.1907923 3.6410871 1.0264764 100
1.2091045 3.6818438 -1.0383821 6
2.0687413 6.2958174 0.11567455 100
1.4126966 4.2967491 -1.0442228 4
2.0759053 6.3101921 0.34813881 100
1.7595702 5.3486185 -1.0944804 9
2.0731885 6.2982302 0.58010858 100
1.8161861 5.5142393 -0.91952187 48
2.0851829 6.3272314 0.81798708 78
1.8195955 5.5180988 -0.71342319 47
2.0796509 6.3030434 1.0512397 100
1.8515974 5.611855 -0.51700783 5
2.0833685 6.3106098 1.291777 79
2.0128226 6.0933504 -0.33631086 65
1.2133497 3.6709757 0.89260578 11
2.0048494 6.062108 -0.11145107 40
1.2034959 3.6369081 1.0264764 100
1.2243867 3.6849337 -1.0404526 6
2.090704 6.288558 0.11567455 100
1.4264573 4.2880926 -1.0433229 4
2.1018615 6.3184347 0.34897619 100
1.7838115 5.3592086 -1.0979151 9
2.098937 6.3022976 0.58115447 100
1.8360492 5.5097394 -0.91983473 51
2.1066301 6.3180304 0.81774336 76
1.8457556 5.5324283 -0.71610433 36
2.1049159 6.3092294 1.0534298 100
1.9304763 5.7830062 -0.53339314 36
2.1078734 6.3107462 1.2933035 86
2.0290141 6.0711336 -0.33547351 58
1.2286259 3.6741114 0.89440536 11
2.0306478 6.0724955 -0.11176521 42
1.2180026 3.6402249 1.0285469 100
1.2360085 3.676976 -1.0394174 6
2.1153679 6.292964 0.11588398 100
1.4357007 4.2685623 -1.0397238 4
2.1226318 6.3072734 0.34876686 100
1.7949883 5.3306222 -1.0933356 9
2.1279228 6.3157015 0.58307195 100
1.8587267 5.5167241 -0.92202479 48
2.1294711 6.3166533 0.81847459 78
1.8615553 5.5187526 -0.71512938 38
2.13135 6.3149447 1.0556198 100
1.9570272 5.7951078 -0.53513628 65
2.1319284 6.3130221 1.2952114 83
2.0491374 6.0643711 -0.33547351 55
1.2401799 3.6681707 0.89395547 11
2.055038 6.0748415 -0.11193974 40
1.2319399 3.639611 1.0295821 100
1.248196 3.6728566 -1.0394174 6
2.1398983 6.2931142 0.1160236 100
1.4543593 4.2745938 -1.0424232 6
2.1433465 6.2960439 0.3485575 100
1.7974697 5.2800364 -1.0841768 7
2.1507804 6.3142676 0.5835948 100
1.8824346 5.5232906 -0.92421496 48
2.1547096 6.3185763 0.81969327 76
1.8820889 5.5159788 -0.71561682 38
2.1546583 6.3112049 1.0562457 100
1.9714463 5.7712731 -0.53356743 26
2.1564896 6.3129745 1.296738 78
2.071584 6.0609612 -0.33568287 58
1.2504551 3.6564431 0.89215589 12
2.0755816 6.0657382 -0.11190483 46
1.2483908 3.6462553 1.032688 100
1.262905 3.6719108 -1.0404526 7
2.1670542 6.3007345 0.11630284 100
1.4705387 4.2731762 -1.0433229 4
2.1692142 6.2998543 0.34918553 100
1.8238432 5.2938318 -1.0883746 9
2.1745598 6.3082261 0.58376914 100
1.9065289 5.5275583 -0.92609209 48
2.1806376 6.3222756 0.82115573 75
1.9071615 5.5262632 -0.71781051 27
2.1766741 6.3036456 1.0562457 100
1.9902803 5.7605901 -0.53321886 42
2.184746 6.3198709 1.299791 78
2.0996621 6.0703154 -0.33662489 61
1.2663969 3.6592021 0.89395547 12
2.0954361 6.0546765 -0.11183503 42
1.2623763 3.6455257 1.0337234 100
1.2706382 3.6528828 -1.0363115 7
2.1901345 6.2927489 0.11630284 100
1.4836264 4.260397 -1.0415233 4
2.1964447 6.3073335 0.35002291 100
1.8436044 5.2911401 -1.0891378 9
2.1965652 6.3005972 0.58376914 100
1.9277627 5.5264654 -0.92703074 48
2.2090271 6.3292351 0.82310557 73
1.9352559 5.5417261 -0.72073537 45
2.2025709 6.3071995 1.0581229 100
2.0162897 5.770535 -0.5347876 44
2.2106795 6.3233266 1.3020806 78
2.1254537 6.0761456 -0.33735761 65
1.2830259 3.6657951 0.8966549 12
2.1244869 6.0699739 -0.11225387 44
1.2725391 3.6338046 1.0316528 100
1.2872287 3.6593595 -1.0394174 7
2.2129824 6.2911105 0.11640756 100
1.5016272 4.2664833 -1.0442228 6
2.2224302 6.3109307 0.35065094 100
1.865979 5.2957826 -1.0914276 9
2.2231808 6.3060451 0.58498931 100
1.9454207 5.5181799 -0.92671788 48
2.2313259 6.3256187 0.82359308 75
1.9556057 5.5408926 -0.72146654 20
2.2298346 6.314374 1.0606258 100
2.0457146 5.789762 -0.53722799 44
2.2296758 6.3104072 1.3009357 73
2.1462586 6.0709476 -0.33746228 61
1.2977718 3.6688697 0.89845449 11
2.1476624 6.0681767 -0.11235859 38
1.2910204 3.6457293 1.0363115 100
1.2980616 3.6514301 -1.0383821 7
2.2376082 6.2908835 0.11654717 100
1.5125916 4.2501993 -1.0415233 6
2.2457848 6.3068986 0.3508603 100
1.892749 5.3154588 -1.0967702 9
2.252106 6.3211598 0.58708107 100
1.9693156 5.5243802 -0.92890793 48
2.2513909 6.3121824 0.82286185 84
1.9722651 5.5265546 -0.72049159 29
2.2578423 6.3232942 1.0634416 112
1.9878531 5.5671649 -0.51718217 20
2.2549939 6.3118291 1.3028439 104
2.1667635 6.0615377 -0.33735761 65
1.3125405 3.6698215 0.89980417 12
2.1755702 6.0794702 -0.11270764 40
